# .PCD v0.7 - Point Cloud Data file format
VERSION 0.7
FIELDS x y z rgb
SIZE 4 4 4 4
TYPE F F F F
COUNT 1 1 1 1
WIDTH 1023
HEIGHT 1
VIEWPOINT 0 0 0 1 0 0 0
POINTS 1023
DATA ascii
67.761436 -9.0625858 702.3454 3.5733111e-043
69.478157 -8.875967 704.75494 3.5733111e-043
69.888489 -8.7520256 704.53992 3.5733111e-043
80.260338 -6.9768934 712.64148 3.5733111e-043
80.678101 -6.8507094 712.42267 3.5733111e-043
81.095879 -6.7245169 712.20374 3.5733111e-043
81.513657 -6.5983334 711.98486 3.5733111e-043
81.931427 -6.4721489 711.76605 3.5733111e-043
82.349205 -6.3459649 711.54712 3.5733111e-043
82.766983 -6.2197809 711.32825 3.5733111e-043
83.184753 -6.0935888 711.10938 3.5733111e-043
83.602524 -5.9674044 710.89056 3.5733111e-043
84.020294 -5.8412209 710.67163 3.5733111e-043
84.438072 -5.7150364 710.45276 3.5733111e-043
86.269699 -5.5089464 712.95398 3.5733111e-043
86.689362 -5.3821859 712.73413 3.5733111e-043
85.691399 -5.3364758 709.79614 3.5733111e-043
84.702477 -5.2911959 706.8847 3.5733111e-043
85.118355 -5.1655793 706.66681 3.5733111e-043
85.534271 -5.0399566 706.44891 3.5733111e-043
84.550438 -4.9962044 703.56549 3.5733111e-043
84.964462 -4.8711486 703.34863 3.5733111e-043
85.378487 -4.7460938 703.13165 3.5733111e-043
85.792511 -4.6210456 702.91473 3.5733111e-043
86.206535 -4.4959908 702.69788 3.5733111e-043
86.620552 -4.370935 702.48096 3.5733111e-043
87.034576 -4.2458868 702.26404 3.5733111e-043
86.048439 -4.2058678 699.41223 3.5733111e-043
86.460632 -4.0813804 699.19629 3.5733111e-043
86.872795 -3.9568851 698.98035 3.5733111e-043
87.284988 -3.8323903 698.7644 3.5733111e-043
87.697151 -3.7078955 698.54846 3.5733111e-043
86.712471 -3.6704562 695.72589 3.5733111e-043
87.122833 -3.5465145 695.51086 3.5733111e-043
87.533173 -3.42258 695.2959 3.5733111e-043
87.943497 -3.2986381 695.08093 3.5733111e-043
88.353859 -3.174696 694.86597 3.5733111e-043
88.764191 -3.0507541 694.65094 3.5733111e-043
89.174522 -2.9268122 694.43597 3.5733111e-043
89.584862 -2.8028703 694.22101 3.5733111e-043
89.995201 -2.6789358 694.00604 3.5733111e-043
90.405563 -2.5549936 693.79102 3.5733111e-043
90.815895 -2.4310517 693.57605 3.5733111e-043
89.821747 -2.3994184 690.78802 3.5733111e-043
88.836388 -2.3680699 688.02448 3.5733111e-043
89.243095 -2.2452259 687.8114 3.5733111e-043
89.649834 -2.1223743 687.59833 3.5733111e-043
90.056564 -1.9995227 687.38525 3.5733111e-043
90.463272 -1.8766787 687.17218 3.5733111e-043
90.87001 -1.7538271 686.95905 3.5733111e-043
89.884377 -1.7254664 684.22449 3.5733111e-043
90.289307 -1.603152 684.01233 3.5733111e-043
90.694244 -1.4808457 683.80017 3.5733111e-043
91.099213 -1.3585391 683.58801 3.5733111e-043
91.50412 -1.2362328 683.37585 3.5733111e-043
91.909081 -1.1139188 683.16376 3.5733111e-043
45.525486 -14.970138 701.12061 3.5733111e-043
45.926914 -14.84889 700.91028 3.5733111e-043
46.328312 -14.727652 700.69995 3.5733111e-043
46.72974 -14.606405 700.48969 3.5733111e-043
47.131142 -14.485158 700.27936 3.5733111e-043
47.53257 -14.363912 700.06909 3.5733111e-043
47.933971 -14.242672 699.85883 3.5733111e-043
48.335396 -14.121426 699.64844 3.5733111e-043
48.736794 -14.000178 699.43817 3.5733111e-043
49.138222 -13.87894 699.22784 3.5733111e-043
49.539623 -13.757693 699.01758 3.5733111e-043
49.941051 -13.636446 698.80731 3.5733111e-043
50.34248 -13.515199 698.59692 3.5733111e-043
50.743877 -13.39396 698.38666 3.5733111e-043
51.145306 -13.272714 698.17639 3.5733111e-043
51.546707 -13.151466 697.96606 3.5733111e-043
51.948135 -13.030228 697.7558 3.5733111e-043
53.565678 -12.864209 700.10321 3.5733111e-043
53.968845 -12.742432 699.89191 3.5733111e-043
54.372017 -12.620657 699.68073 3.5733111e-043
54.775177 -12.498887 699.46948 3.5733111e-043
55.178345 -12.37711 699.2583 3.5733111e-043
55.581512 -12.255334 699.04706 3.5733111e-043
55.98468 -12.133565 698.83582 3.5733111e-043
56.387852 -12.011789 698.62463 3.5733111e-043
56.791019 -11.890012 698.41339 3.5733111e-043
57.19418 -11.768243 698.20221 3.5733111e-043
57.597347 -11.646466 697.99097 3.5733111e-043
58.000549 -11.52469 697.77979 3.5733111e-043
58.403717 -11.402913 697.56848 3.5733111e-043
58.806885 -11.281144 697.3573 3.5733111e-043
59.210049 -11.159368 697.14612 3.5733111e-043
59.613216 -11.037591 696.93488 3.5733111e-043
61.271576 -10.862099 699.28894 3.5733111e-043
61.676514 -10.739784 699.07678 3.5733111e-043
62.081451 -10.617477 698.86462 3.5733111e-043
62.486385 -10.495172 698.65247 3.5733111e-043
62.891323 -10.372857 698.44037 3.5733111e-043
63.296257 -10.250551 698.22815 3.5733111e-043
63.701191 -10.128244 698.01605 3.5733111e-043
64.106125 -10.005931 697.80389 3.5733111e-043
65.791557 -9.8251085 700.17224 3.5733111e-043
66.198288 -9.7022572 699.95917 3.5733111e-043
66.604988 -9.5794125 699.74603 3.5733111e-043
67.011726 -9.456562 699.53296 3.5733111e-043
67.418457 -9.3337183 699.31989 3.5733111e-043
69.126045 -9.1491346 701.70532 3.5733111e-043
69.534554 -9.0257378 701.49133 3.5733111e-043
69.943092 -8.9023495 701.27734 3.5733111e-043
80.402504 -7.4439502 712.64362 3.5733111e-043
80.820274 -7.3177657 712.42468 3.5733111e-043
81.238052 -7.1915736 712.20587 3.5733111e-043
81.655823 -7.0653896 711.987 3.5733111e-043
82.073601 -6.9392052 711.76813 3.5733111e-043
82.491371 -6.8130212 711.54919 3.5733111e-043
82.909142 -6.6868372 711.33038 3.5733111e-043
83.32692 -6.5606451 711.11151 3.5733111e-043
83.74469 -6.4344606 710.89264 3.5733111e-043
84.16246 -6.3082771 710.67377 3.5733111e-043
84.580238 -6.1820927 710.4549 3.5733111e-043
86.412506 -5.9781303 712.95612 3.5733111e-043
86.832207 -5.8513699 712.73621 3.5733111e-043
87.251869 -5.7246103 712.51636 3.5733111e-043
84.844002 -5.7561474 706.88678 3.5733111e-043
85.259918 -5.6305313 706.66895 3.5733111e-043
85.675797 -5.5049081 706.45099 3.5733111e-043
84.691345 -5.4590669 703.56757 3.5733111e-043
85.10537 -5.3340111 703.35071 3.5733111e-043
85.519394 -5.2089558 703.13373 3.5733111e-043
85.933411 -5.0839081 702.91687 3.5733111e-043
86.347435 -4.9588528 702.69995 3.5733111e-043
86.761459 -4.8337975 702.48309 3.5733111e-043
85.776535 -4.7911582 699.63019 3.5733111e-043
86.188728 -4.6666636 699.41431 3.5733111e-043
86.600891 -4.5421686 699.19836 3.5733111e-043
87.013054 -4.4176817 698.98236 3.5733111e-043
87.425247 -4.2931862 698.76648 3.5733111e-043
86.44178 -4.2531433 695.94293 3.5733111e-043
86.852112 -4.1292014 695.72797 3.5733111e-043
87.262489 -4.0052595 695.51294 3.5733111e-043
87.672821 -3.8813248 695.29797 3.5733111e-043
88.083145 -3.7573829 695.08301 3.5733111e-043
88.493477 -3.6334407 694.86804 3.5733111e-043
88.903839 -3.5094986 694.65302 3.5733111e-043
89.314171 -3.3855565 694.43805 3.5733111e-043
89.72451 -3.2616148 694.22308 3.5733111e-043
90.134842 -3.1376803 694.00812 3.5733111e-043
90.545212 -3.0137384 693.79309 3.5733111e-043
89.552246 -2.9795315 691.00409 3.5733111e-043
89.960777 -2.8561423 690.7901 3.5733111e-043
90.369308 -2.7327533 690.57605 3.5733111e-043
89.381523 -2.699929 687.81342 3.5733111e-043
89.788254 -2.5770774 687.60034 3.5733111e-043
90.194954 -2.454226 687.38727 3.5733111e-043
90.601692 -2.3313818 687.17419 3.5733111e-043
91.0084 -2.2085304 686.96112 3.5733111e-043
90.022179 -2.1781716 684.2265 3.5733111e-043
90.427116 -2.0558577 684.0144 3.5733111e-043
90.832047 -1.933551 683.80219 3.5733111e-043
91.237022 -1.8112445 683.59003 3.5733111e-043
91.641922 -1.6889381 683.37793 3.5733111e-043
92.046898 -1.566624 683.16577 3.5733111e-043
45.662094 -15.418908 701.12262 3.5733111e-043
46.063526 -15.297662 700.91229 3.5733111e-043
46.46492 -15.176422 700.70197 3.5733111e-043
46.866352 -15.055176 700.4917 3.5733111e-043
47.26775 -14.933928 700.28143 3.5733111e-043
47.669178 -14.812683 700.07111 3.5733111e-043
48.07058 -14.691442 699.86084 3.5733111e-043
48.472004 -14.570196 699.65045 3.5733111e-043
48.873405 -14.448949 699.44019 3.5733111e-043
49.274834 -14.32771 699.22992 3.5733111e-043
49.676235 -14.206464 699.01959 3.5733111e-043
50.077663 -14.085217 698.80933 3.5733111e-043
50.479061 -13.96397 698.59894 3.5733111e-043
50.880486 -13.842731 698.38867 3.5733111e-043
51.281887 -13.721485 698.17841 3.5733111e-043
51.683315 -13.600237 697.96808 3.5733111e-043
52.084717 -13.478998 697.75781 3.5733111e-043
53.702869 -13.314939 700.10522 3.5733111e-043
54.106037 -13.193163 699.89392 3.5733111e-043
54.509209 -13.071387 699.68274 3.5733111e-043
54.912373 -12.949617 699.47156 3.5733111e-043
55.31554 -12.827841 699.26031 3.5733111e-043
55.718735 -12.706064 699.04913 3.5733111e-043
56.121906 -12.584295 698.83783 3.5733111e-043
56.525074 -12.462519 698.62665 3.5733111e-043
56.928238 -12.340742 698.41541 3.5733111e-043
57.331406 -12.218966 698.20422 3.5733111e-043
57.734573 -12.097198 697.99304 3.5733111e-043
58.137741 -11.97542 697.78174 3.5733111e-043
58.540909 -11.853643 697.57056 3.5733111e-043
58.944077 -11.731874 697.35931 3.5733111e-043
59.34724 -11.610099 697.14813 3.5733111e-043
59.750412 -11.488321 696.93689 3.5733111e-043
60.15358 -11.366552 696.72565 3.5733111e-043
60.556744 -11.244776 696.51447 3.5733111e-043
60.959911 -11.122999 696.30322 3.5733111e-043
61.363079 -11.001223 696.09204 3.5733111e-043
61.766247 -10.879454 695.8808 3.5733111e-043
62.169415 -10.757677 695.66962 3.5733111e-043
62.572582 -10.6359 695.45831 3.5733111e-043
62.975746 -10.514132 695.24713 3.5733111e-043
64.648865 -10.336337 697.59381 3.5733111e-043
65.053802 -10.214029 697.38165 3.5733111e-043
64.185272 -10.148801 694.61353 3.5733111e-043
64.588448 -10.027033 694.40222 3.5733111e-043
66.268646 -9.8471031 696.74518 3.5733111e-043
66.673576 -9.7247963 696.53308 3.5733111e-043
68.370323 -9.5427332 698.89575 3.5733111e-043
68.777031 -9.4198818 698.68268 3.5733111e-043
69.183762 -9.2970371 698.4696 3.5733111e-043
80.544693 -7.9110141 712.64575 3.5733111e-043
80.962471 -7.7848296 712.42682 3.5733111e-043
81.380249 -7.658638 712.20795 3.5733111e-043
82.215797 -7.4062696 711.7702 3.5733111e-043
82.633568 -7.2800851 711.55133 3.5733111e-043
83.051346 -7.1539016 711.33246 3.5733111e-043
83.469124 -7.027709 711.11365 3.5733111e-043
83.886879 -6.901525 710.89471 3.5733111e-043
84.304657 -6.775341 710.67584 3.5733111e-043
86.135689 -6.5740666 713.1781 3.5733111e-043
86.555351 -6.4473062 712.95819 3.5733111e-043
86.975014 -6.3205466 712.73834 3.5733111e-043
87.394676 -6.1937861 712.51849 3.5733111e-043
84.98555 -6.2210989 706.88892 3.5733111e-043
85.401436 -6.0954833 706.67096 3.5733111e-043
84.418198 -6.0469847 703.78656 3.5733111e-043
84.832222 -5.9219365 703.5697 3.5733111e-043
85.246246 -5.7968817 703.35272 3.5733111e-043
85.660263 -5.6718259 703.13586 3.5733111e-043
86.074287 -5.5467782 702.91895 3.5733111e-043
86.488312 -5.4217229 702.70203 3.5733111e-043
86.902336 -5.2966676 702.48511 3.5733111e-043
85.916832 -5.2519622 699.63232 3.5733111e-043
86.328995 -5.1274672 699.41638 3.5733111e-043
86.741158 -5.0029726 699.20044 3.5733111e-043
87.153351 -4.8784852 698.9845 3.5733111e-043
87.565521 -4.7539902 698.76855 3.5733111e-043
86.581429 -4.7118959 695.94501 3.5733111e-043
86.99176 -4.5879536 695.72998 3.5733111e-043
87.40213 -4.4640121 695.51501 3.5733111e-043
87.812462 -4.3400769 695.30005 3.5733111e-043
88.222794 -4.2161355 695.08508 3.5733111e-043
87.240135 -4.1766062 692.29028 3.5733111e-043
87.648674 -4.0532093 692.07629 3.5733111e-043
89.453827 -3.8443091 694.44012 3.5733111e-043
88.465698 -3.8064229 691.64825 3.5733111e-043
88.874237 -3.6830337 691.43414 3.5733111e-043
89.282745 -3.5596447 691.22015 3.5733111e-043
89.691277 -3.4362478 691.00616 3.5733111e-043
90.099808 -3.3128588 690.79211 3.5733111e-043
90.508316 -3.1894698 690.57806 3.5733111e-043
89.519943 -3.1546323 687.81549 3.5733111e-043
89.926643 -3.0317883 687.60242 3.5733111e-043
90.333374 -2.908937 687.38934 3.5733111e-043
89.350113 -2.8754973 684.65283 3.5733111e-043
89.755043 -2.753191 684.44067 3.5733111e-043
90.159988 -2.6308846 684.22858 3.5733111e-043
90.564919 -2.5085704 684.01642 3.5733111e-043
90.969864 -2.3862641 683.8042 3.5733111e-043
91.374825 -2.2639577 683.5921 3.5733111e-043
91.779732 -2.1416514 683.37994 3.5733111e-043
92.184692 -2.0193369 683.16785 3.5733111e-043
45.798702 -15.86768 701.12463 3.5733111e-043
46.200104 -15.746432 700.91431 3.5733111e-043
46.601528 -15.625193 700.70398 3.5733111e-043
47.00296 -15.503946 700.49371 3.5733111e-043
47.404358 -15.382699 700.28345 3.5733111e-043
47.80579 -15.261454 700.07312 3.5733111e-043
48.207188 -15.140213 699.86285 3.5733111e-043
48.608616 -15.018967 699.65247 3.5733111e-043
49.010014 -14.897719 699.4422 3.5733111e-043
49.411446 -14.776482 699.23193 3.5733111e-043
49.812843 -14.655234 699.02161 3.5733111e-043
50.214275 -14.533987 698.81134 3.5733111e-043
50.615669 -14.412741 698.60101 3.5733111e-043
51.017097 -14.291502 698.39069 3.5733111e-043
51.418499 -14.170256 698.18042 3.5733111e-043
51.819927 -14.049007 697.97009 3.5733111e-043
52.221329 -13.927769 697.75983 3.5733111e-043
53.840092 -13.765677 700.10724 3.5733111e-043
54.243263 -13.643901 699.896 3.5733111e-043
54.646431 -13.522125 699.68475 3.5733111e-043
55.049595 -13.400355 699.47357 3.5733111e-043
55.452763 -13.278579 699.26233 3.5733111e-043
55.85593 -13.156803 699.05115 3.5733111e-043
56.259098 -13.035033 698.8399 3.5733111e-043
56.662266 -12.913257 698.62866 3.5733111e-043
57.06543 -12.79148 698.41748 3.5733111e-043
57.468597 -12.669703 698.20624 3.5733111e-043
57.871769 -12.547935 697.99506 3.5733111e-043
57.038319 -12.472831 695.23615 3.5733111e-043
58.678101 -12.304381 697.57257 3.5733111e-043
59.081264 -12.182612 697.36139 3.5733111e-043
59.484436 -12.060836 697.15015 3.5733111e-043
58.643978 -11.987851 694.39502 3.5733111e-043
59.045376 -11.866611 694.18469 3.5733111e-043
59.4468 -11.745365 693.97437 3.5733111e-043
59.848202 -11.624118 693.7641 3.5733111e-043
60.24963 -11.50288 693.55377 3.5733111e-043
60.651062 -11.381633 693.34351 3.5733111e-043
61.05246 -11.260386 693.13318 3.5733111e-043
61.453888 -11.139138 692.92285 3.5733111e-043
61.855286 -11.0179 692.71259 3.5733111e-043
62.256718 -10.896653 692.50232 3.5733111e-043
62.658115 -10.775406 692.29199 3.5733111e-043
64.322472 -10.599539 694.61554 3.5733111e-043
63.460941 -10.532921 691.87134 3.5733111e-043
65.128799 -10.355994 694.19305 3.5733111e-043
65.531975 -10.234218 693.98187 3.5733111e-043
65.935143 -10.112449 693.77063 3.5733111e-043
67.621254 -9.9328814 696.11078 3.5733111e-043
68.026192 -9.8105745 695.89862 3.5733111e-043
80.686859 -8.3780708 712.64777 3.5733111e-043
81.104637 -8.2518864 712.42896 3.5733111e-043
81.522408 -8.1256943 712.21008 3.5733111e-043
82.357964 -7.8733258 711.77228 3.5733111e-043
82.775734 -7.7471414 711.55347 3.5733111e-043
83.193512 -7.6209579 711.33459 3.5733111e-043
83.611275 -7.4947653 711.11566 3.5733111e-043
84.029053 -7.3685813 710.89685 3.5733111e-043
84.446831 -7.2423973 710.67798 3.5733111e-043
86.278496 -7.0432582 713.18018 3.5733111e-043
86.698166 -6.9164977 712.96027 3.5733111e-043
87.117859 -6.7897377 712.74042 3.5733111e-043
87.537529 -6.6629777 712.52057 3.5733111e-043
85.127068 -6.6860585 706.89099 3.5733111e-043
86.953468 -6.4852843 709.36475 3.5733111e-043
87.371246 -6.3591008 709.14587 3.5733111e-043
84.973122 -6.384799 703.57178 3.5733111e-043
85.387146 -6.2597437 703.3548 3.5733111e-043
85.80117 -6.1346884 703.13794 3.5733111e-043
86.215195 -6.0096407 702.92102 3.5733111e-043
86.629219 -5.8845849 702.70416 3.5733111e-043
87.043243 -5.7595301 702.48718 3.5733111e-043
86.057091 -5.7127652 699.6344 3.5733111e-043
86.469254 -5.5882707 699.41846 3.5733111e-043
86.881447 -5.4637761 699.20245 3.5733111e-043
87.293617 -5.3392887 698.98657 3.5733111e-043
87.70578 -5.2147937 698.77063 3.5733111e-043
86.721077 -5.1706481 695.94708 3.5733111e-043
87.131416 -5.0467057 695.73206 3.5733111e-043
87.541748 -4.9227643 695.51709 3.5733111e-043
87.952103 -4.7988291 695.30212 3.5733111e-043
86.970634 -4.7567115 692.50635 3.5733111e-043
87.379173 -4.6333222 692.29236 3.5733111e-043
87.787704 -4.5099254 692.07831 3.5733111e-043
88.196205 -4.3865361 691.86432 3.5733111e-043
88.604736 -4.2631392 691.65033 3.5733111e-043
89.013275 -4.1397505 691.43622 3.5733111e-043
89.421776 -4.0163612 691.22223 3.5733111e-043
89.830315 -3.8929644 691.00818 3.5733111e-043
90.238846 -3.7695749 690.79419 3.5733111e-043
90.647354 -3.6461859 690.58014 3.5733111e-043
89.658363 -3.6093357 687.81757 3.5733111e-043
90.065063 -3.4864917 687.60449 3.5733111e-043
89.082985 -3.4505169 684.867 3.5733111e-043
89.487915 -3.328203 684.65485 3.5733111e-043
89.89286 -3.2058966 684.44275 3.5733111e-043
90.297791 -3.08359 684.23059 3.5733111e-043
90.702728 -2.9612761 684.01843 3.5733111e-043
91.107666 -2.8389695 683.80627 3.5733111e-043
91.512634 -2.7166629 683.59412 3.5733111e-043
91.917534 -2.5943565 683.38202 3.5733111e-043
45.935318 -16.316448 701.12665 3.5733111e-043
46.336712 -16.195202 700.91632 3.5733111e-043
46.738144 -16.073963 700.70599 3.5733111e-043
47.139542 -15.952717 700.49573 3.5733111e-043
47.540966 -15.83147 700.28546 3.5733111e-043
47.942398 -15.710224 700.07513 3.5733111e-043
48.343796 -15.588984 699.86487 3.5733111e-043
48.745224 -15.467737 699.65454 3.5733111e-043
49.146622 -15.346491 699.44421 3.5733111e-043
49.548054 -15.225252 699.23395 3.5733111e-043
49.949451 -15.104004 699.02362 3.5733111e-043
50.350883 -14.982758 698.81335 3.5733111e-043
50.752277 -14.861511 698.60303 3.5733111e-043
51.153709 -14.740273 698.3927 3.5733111e-043
51.555107 -14.619026 698.18243 3.5733111e-043
51.956539 -14.497778 697.97217 3.5733111e-043
52.357937 -14.376539 697.76184 3.5733111e-043
52.759365 -14.255293 697.55151 3.5733111e-043
54.380459 -14.094624 699.89801 3.5733111e-043
54.783619 -13.972848 699.68683 3.5733111e-043
55.186787 -13.851078 699.47559 3.5733111e-043
55.589954 -13.729302 699.2644 3.5733111e-043
55.993126 -13.607526 699.05316 3.5733111e-043
56.396294 -13.485756 698.84192 3.5733111e-043
56.799461 -13.363979 698.63068 3.5733111e-043
55.970673 -13.285334 695.86914 3.5733111e-043
56.372105 -13.164095 695.65881 3.5733111e-043
56.773502 -13.042849 695.44855 3.5733111e-043
57.174931 -12.921601 695.23822 3.5733111e-043
56.348026 -12.845221 692.5033 3.5733111e-043
56.747688 -12.724504 692.29388 3.5733111e-043
57.147373 -12.603781 692.08453 3.5733111e-043
57.547035 -12.483063 691.87506 3.5733111e-043
57.946728 -12.362346 691.66571 3.5733111e-043
58.34639 -12.241621 691.45636 3.5733111e-043
58.746078 -12.120904 691.24695 3.5733111e-043
59.145737 -12.000187 691.0376 3.5733111e-043
59.545429 -11.879471 690.82819 3.5733111e-043
61.189064 -11.709156 693.13519 3.5733111e-043
60.34478 -11.638028 690.40936 3.5733111e-043
60.744442 -11.517312 690.20001 3.5733111e-043
61.144135 -11.396587 689.9906 3.5733111e-043
61.543793 -11.275869 689.78125 3.5733111e-043
61.943485 -11.155153 689.57184 3.5733111e-043
64.400375 -10.739198 691.45282 3.5733111e-043
64.801804 -10.617958 691.24249 3.5733111e-043
66.475533 -10.441395 693.56146 3.5733111e-043
80.829025 -8.8451347 712.6499 3.5733111e-043
81.246803 -8.7189503 712.43103 3.5733111e-043
81.664574 -8.5927582 712.21216 3.5733111e-043
82.500122 -8.3403912 711.77441 3.5733111e-043
82.9179 -8.2142057 711.55554 3.5733111e-043
83.335678 -8.0880213 711.33673 3.5733111e-043
83.753441 -7.9618297 711.1178 3.5733111e-043
84.171219 -7.8356452 710.89893 3.5733111e-043
84.588989 -7.7094617 710.68011 3.5733111e-043
86.421303 -7.5124345 713.18225 3.5733111e-043
86.841003 -7.3856745 712.9624 3.5733111e-043
87.260666 -7.2589145 712.74255 3.5733111e-043
87.680336 -7.1321545 712.52271 3.5733111e-043
85.268623 -7.1510105 706.89307 3.5733111e-043
87.095634 -6.9523482 709.36682 3.5733111e-043
87.513412 -6.8261647 709.14801 3.5733111e-043
86.516273 -6.7741551 706.23944 3.5733111e-043
86.93219 -6.6485386 706.02155 3.5733111e-043
85.942078 -6.5975585 703.14001 3.5733111e-043
86.356102 -6.4725108 702.92316 3.5733111e-043
86.770126 -6.3474555 702.70618 3.5733111e-043
87.184151 -6.2223997 702.48926 3.5733111e-043
86.197357 -6.1735611 699.63647 3.5733111e-043
86.60952 -6.0490665 699.42053 3.5733111e-043
87.021721 -5.9245791 699.20453 3.5733111e-043
87.433884 -5.8000851 698.98865 3.5733111e-043
87.846039 -5.6755896 698.77271 3.5733111e-043
86.860733 -5.6293926 695.94916 3.5733111e-043
87.271065 -5.5054507 695.73413 3.5733111e-043
87.681396 -5.3815088 695.51917 3.5733111e-043
88.091721 -5.2575746 695.3042 3.5733111e-043
87.109665 -5.2134275 692.50842 3.5733111e-043
87.518204 -5.0900388 692.29437 3.5733111e-043
87.926704 -4.9666419 692.08038 3.5733111e-043
88.335236 -4.8432522 691.86639 3.5733111e-043
88.743767 -4.7198563 691.65234 3.5733111e-043
89.152275 -4.5964665 691.43829 3.5733111e-043
89.560814 -4.4730778 691.2243 3.5733111e-043
89.969345 -4.3496809 691.01025 3.5733111e-043
90.377846 -4.2262917 690.79626 3.5733111e-043
90.786385 -4.1029024 690.58215 3.5733111e-043
89.796753 -4.0640545 687.81958 3.5733111e-043
90.203484 -3.9412024 687.60651 3.5733111e-043
89.220787 -3.90323 684.86902 3.5733111e-043
89.625725 -3.7809157 684.65692 3.5733111e-043
90.030663 -3.6586094 684.44476 3.5733111e-043
90.4356 -3.536303 684.2326 3.5733111e-043
90.84053 -3.4139888 684.02045 3.5733111e-043
91.245476 -3.2916825 683.80829 3.5733111e-043
91.650436 -3.1693761 683.59619 3.5733111e-043
92.055351 -3.0470695 683.38403 3.5733111e-043
92.460304 -2.9247556 683.17188 3.5733111e-043
92.865242 -2.8024492 682.95972 3.5733111e-043
46.071926 -16.765224 701.12866 3.5733111e-043
46.47332 -16.643982 700.91833 3.5733111e-043
46.874752 -16.522734 700.70807 3.5733111e-043
47.27615 -16.401493 700.49774 3.5733111e-043
47.677582 -16.280249 700.28748 3.5733111e-043
48.078979 -16.159 700.07715 3.5733111e-043
48.480408 -16.037762 699.86688 3.5733111e-043
48.881836 -15.916515 699.65656 3.5733111e-043
49.283237 -15.795269 699.44623 3.5733111e-043
49.684662 -15.67403 699.23596 3.5733111e-043
50.086063 -15.552782 699.0257 3.5733111e-043
50.487492 -15.431536 698.81537 3.5733111e-043
50.888885 -15.310298 698.60504 3.5733111e-043
51.290318 -15.189051 698.39471 3.5733111e-043
51.691715 -15.067804 698.18445 3.5733111e-043
52.093147 -14.946556 697.97418 3.5733111e-043
52.494545 -14.825318 697.76385 3.5733111e-043
52.895973 -14.704071 697.55353 3.5733111e-043
54.517651 -14.545362 699.90002 3.5733111e-043
54.920845 -14.423585 699.68884 3.5733111e-043
55.324013 -14.301816 699.4776 3.5733111e-043
55.72718 -14.180039 699.26642 3.5733111e-043
56.130348 -14.058264 699.05524 3.5733111e-043
56.533516 -13.936494 698.84393 3.5733111e-043
56.93668 -13.814717 698.63275 3.5733111e-043
56.107288 -13.734113 695.87115 3.5733111e-043
56.508713 -13.612873 695.66083 3.5733111e-043
55.6847 -13.533497 692.92407 3.5733111e-043
56.084362 -13.412772 692.71466 3.5733111e-043
56.484051 -13.292054 692.50531 3.5733111e-043
56.883709 -13.171338 692.2959 3.5733111e-043
57.283401 -13.050614 692.08655 3.5733111e-043
56.459652 -12.97401 689.37701 3.5733111e-043
58.082752 -12.809179 691.66772 3.5733111e-043
58.482414 -12.688455 691.45837 3.5733111e-043
58.882111 -12.567738 691.24896 3.5733111e-043
59.281765 -12.447021 691.03961 3.5733111e-043
59.681458 -12.326304 690.8302 3.5733111e-043
60.08112 -12.20558 690.62079 3.5733111e-043
60.480808 -12.084863 690.41138 3.5733111e-043
60.88047 -11.964146 690.20203 3.5733111e-043
61.280159 -11.843421 689.99261 3.5733111e-043
61.679821 -11.722703 689.78326 3.5733111e-043
62.07951 -11.601988 689.57385 3.5733111e-043
62.479172 -11.481263 689.36444 3.5733111e-043
62.878864 -11.360545 689.15503 3.5733111e-043
63.278519 -11.239828 688.94568 3.5733111e-043
80.971222 -9.312191 712.65204 3.5733111e-043
81.388992 -9.1860065 712.43317 3.5733111e-043
81.80677 -9.0598145 712.21429 3.5733111e-043
82.642319 -8.8074474 711.77655 3.5733111e-043
83.060097 -8.681262 711.55768 3.5733111e-043
83.477867 -8.5550776 711.33875 3.5733111e-043
83.895638 -8.4288855 711.11993 3.5733111e-043
84.313416 -8.302702 710.90106 3.5733111e-043
84.731186 -8.1765175 710.68219 3.5733111e-043
86.564148 -7.9816256 713.18439 3.5733111e-043
86.98381 -7.8548656 712.96454 3.5733111e-043
87.403481 -7.7281055 712.74469 3.5733111e-043
87.823166 -7.6013455 712.52478 3.5733111e-043
86.82003 -7.545589 709.58783 3.5733111e-043
87.237808 -7.419405 709.36896 3.5733111e-043
87.655586 -7.293221 709.15009 3.5733111e-043
88.073349 -7.167037 708.93115 3.5733111e-043
87.073708 -7.1134911 706.02362 3.5733111e-043
87.489594 -6.9878745 705.80579 3.5733111e-043
86.497009 -6.9353805 702.92523 3.5733111e-043
86.911041 -6.8103256 702.70825 3.5733111e-043
87.325066 -6.6852698 702.49139 3.5733111e-043
87.739082 -6.5602221 702.27448 3.5733111e-043
88.153099 -6.4351668 702.05762 3.5733111e-043
87.16198 -6.3853674 699.20667 3.5733111e-043
87.574142 -6.2608805 698.99072 3.5733111e-043
87.986328 -6.1363854 698.77478 3.5733111e-043
87.000381 -6.0881453 695.95117 3.5733111e-043
87.410713 -5.9642029 695.73621 3.5733111e-043
87.821037 -5.840261 695.52124 3.5733111e-043
88.231369 -5.7163267 695.30627 3.5733111e-043
88.641731 -5.5923843 695.09125 3.5733111e-043
89.052071 -5.4684424 694.87628 3.5733111e-043
88.065735 -5.4233661 692.08246 3.5733111e-043
88.474266 -5.2999768 691.86841 3.5733111e-043
88.882782 -5.17658 691.65436 3.5733111e-043
89.291313 -5.0531902 691.44037 3.5733111e-043
89.699844 -4.9298019 691.22632 3.5733111e-043
90.108345 -4.8064046 691.01233 3.5733111e-043
90.516891 -4.6830153 690.79834 3.5733111e-043
89.528465 -4.6416016 688.03473 3.5733111e-043
89.935173 -4.5187573 687.82166 3.5733111e-043
90.341904 -4.395906 687.60858 3.5733111e-043
89.358597 -4.3559356 684.87109 3.5733111e-043
89.763535 -4.2336211 684.65894 3.5733111e-043
90.168472 -4.1113153 684.44684 3.5733111e-043
90.573402 -3.9890082 684.23468 3.5733111e-043
90.978348 -3.8666945 684.02246 3.5733111e-043
91.383278 -3.7443881 683.81036 3.5733111e-043
91.788216 -3.6220815 683.59821 3.5733111e-043
92.193146 -3.4997749 683.38611 3.5733111e-043
92.598114 -3.3774607 683.17395 3.5733111e-043
46.208534 -17.213991 701.13074 3.5733111e-043
46.609932 -17.092743 700.92035 3.5733111e-043
47.01136 -16.971504 700.71008 3.5733111e-043
47.412758 -16.850256 700.49976 3.5733111e-043
47.81419 -16.72901 700.28949 3.5733111e-043
48.215588 -16.607765 700.07922 3.5733111e-043
48.617016 -16.486525 699.8689 3.5733111e-043
49.018414 -16.365278 699.65857 3.5733111e-043
49.419846 -16.24403 699.44824 3.5733111e-043
49.821274 -16.122791 699.23798 3.5733111e-043
50.222675 -16.001545 699.02771 3.5733111e-043
50.624069 -15.8803 698.81738 3.5733111e-043
51.025501 -15.759053 698.60706 3.5733111e-043
51.426929 -15.637814 698.39679 3.5733111e-043
51.828327 -15.516566 698.18646 3.5733111e-043
52.229755 -15.395319 697.9762 3.5733111e-043
52.631153 -15.274081 697.76587 3.5733111e-043
53.032581 -15.152834 697.55554 3.5733111e-043
53.433983 -15.031588 697.34528 3.5733111e-043
53.835411 -14.910347 697.13495 3.5733111e-043
55.461205 -14.752547 699.47968 3.5733111e-043
54.638241 -14.667855 696.71442 3.5733111e-043
56.26754 -14.508994 699.05725 3.5733111e-043
55.441067 -14.425369 696.29376 3.5733111e-043
55.842464 -14.304121 696.08344 3.5733111e-043
56.243896 -14.182876 695.87317 3.5733111e-043
56.645325 -14.061636 695.6629 3.5733111e-043
55.820694 -13.980323 692.92609 3.5733111e-043
56.220387 -13.859598 692.71667 3.5733111e-043
56.620049 -13.738881 692.50732 3.5733111e-043
57.019737 -13.618164 692.29791 3.5733111e-043
57.419399 -13.49744 692.08856 3.5733111e-043
57.819092 -13.376722 691.87915 3.5733111e-043
58.218754 -13.256005 691.66974 3.5733111e-043
58.618443 -13.135282 691.46033 3.5733111e-043
59.018101 -13.014565 691.25098 3.5733111e-043
59.417793 -12.893847 691.04163 3.5733111e-043
59.817451 -12.77313 690.83221 3.5733111e-043
60.217144 -12.652407 690.6228 3.5733111e-043
60.616806 -12.531689 690.41339 3.5733111e-043
61.016499 -12.410972 690.20404 3.5733111e-043
61.416153 -12.290247 689.99463 3.5733111e-043
61.815845 -12.169529 689.78528 3.5733111e-043
62.215508 -12.048814 689.57587 3.5733111e-043
62.615196 -11.928089 689.36646 3.5733111e-043
63.014858 -11.807372 689.15704 3.5733111e-043
63.414547 -11.686654 688.94769 3.5733111e-043
65.013252 -11.203779 688.11011 3.5733111e-043
65.41291 -11.083055 687.90076 3.5733111e-043
81.11338 -9.7792549 712.65411 3.5733111e-043
81.531158 -9.6530704 712.43524 3.5733111e-043
81.948936 -9.5268784 712.21637 3.5733111e-043
83.202263 -9.1483259 711.55981 3.5733111e-043
83.620026 -9.0221415 711.34088 3.5733111e-043
84.037804 -8.8959503 711.12201 3.5733111e-043
84.455574 -8.7697659 710.9032 3.5733111e-043
84.873352 -8.6435814 710.68427 3.5733111e-043
86.706955 -8.4508018 713.18652 3.5733111e-043
87.126617 -8.3240433 712.96667 3.5733111e-043
87.546318 -8.1972818 712.74677 3.5733111e-043
86.544456 -8.1388369 709.80878 3.5733111e-043
86.962227 -8.0126524 709.5899 3.5733111e-043
87.380005 -7.8864689 709.37109 3.5733111e-043
87.797775 -7.7602849 709.15216 3.5733111e-043
88.215546 -7.6341004 708.93329 3.5733111e-043
87.215225 -7.5784426 706.02576 3.5733111e-043
87.631142 -7.4528265 705.80786 3.5733111e-043
86.637894 -7.3982511 702.92725 3.5733111e-043
87.05191 -7.2731953 702.71039 3.5733111e-043
87.465935 -7.1481404 702.49347 3.5733111e-043
87.879951 -7.0230923 702.27655 3.5733111e-043
88.293976 -6.8980374 702.05963 3.5733111e-043
87.302238 -6.8461714 699.20874 3.5733111e-043
87.714401 -6.7216835 698.9928 3.5733111e-043
88.126587 -6.5971889 698.77686 3.5733111e-043
88.53875 -6.4726944 698.56091 3.5733111e-043
87.550362 -6.422955 695.73828 3.5733111e-043
87.960686 -6.2990136 695.52332 3.5733111e-043
88.371017 -6.1750789 695.30835 3.5733111e-043
88.781387 -6.051137 695.09332 3.5733111e-043
89.191719 -5.9271946 694.87836 3.5733111e-043
88.204773 -5.8800821 692.08453 3.5733111e-043
88.613274 -5.7566929 691.87048 3.5733111e-043
89.021812 -5.633296 691.65643 3.5733111e-043
89.430344 -5.5099072 691.44244 3.5733111e-043
89.838852 -5.3865175 691.22839 3.5733111e-043
90.247383 -5.2631211 691.0144 3.5733111e-043
90.655922 -5.1397319 690.80029 3.5733111e-043
89.666855 -5.0963049 688.03674 3.5733111e-043
90.073586 -4.9734612 687.82367 3.5733111e-043
90.480301 -4.8506093 687.6106 3.5733111e-043
89.496399 -4.8086481 684.87311 3.5733111e-043
89.901344 -4.6863346 684.66101 3.5733111e-043
90.306274 -4.5640278 684.44885 3.5733111e-043
90.711212 -4.4417214 684.23669 3.5733111e-043
91.11615 -4.3194075 684.02454 3.5733111e-043
91.521088 -4.1971011 683.81238 3.5733111e-043
91.926018 -4.0747948 683.60028 3.5733111e-043
92.330956 -3.9524877 683.38812 3.5733111e-043
92.735916 -3.8301737 683.17596 3.5733111e-043
46.345142 -17.662762 701.13275 3.5733111e-043
46.74654 -17.541515 700.92236 3.5733111e-043
47.147968 -17.420275 700.7121 3.5733111e-043
47.54937 -17.299026 700.50177 3.5733111e-043
47.950798 -17.177782 700.2915 3.5733111e-043
48.3522 -17.056534 700.08124 3.5733111e-043
48.753624 -16.935295 699.87091 3.5733111e-043
49.155025 -16.814047 699.66058 3.5733111e-043
49.556454 -16.692802 699.45032 3.5733111e-043
49.957855 -16.571564 699.23999 3.5733111e-043
50.359283 -16.450315 699.02972 3.5733111e-043
50.760681 -16.329071 698.8194 3.5733111e-043
51.162109 -16.207823 698.60907 3.5733111e-043
51.563538 -16.086582 698.3988 3.5733111e-043
51.964939 -15.965337 698.18848 3.5733111e-043
52.366367 -15.84409 697.97821 3.5733111e-043
52.767765 -15.722852 697.76794 3.5733111e-043
53.169193 -15.601604 697.55756 3.5733111e-043
53.570591 -15.480358 697.34729 3.5733111e-043
53.972019 -15.359118 697.13696 3.5733111e-043
54.373421 -15.237872 696.9267 3.5733111e-043
54.774845 -15.116626 696.71643 3.5733111e-043
55.176247 -14.995378 696.5061 3.5733111e-043
55.577675 -14.874139 696.29578 3.5733111e-043
55.979076 -14.752892 696.08551 3.5733111e-043
56.380505 -14.631646 695.87518 3.5733111e-043
56.781906 -14.510406 695.66492 3.5733111e-043
55.956726 -14.427141 692.9281 3.5733111e-043
56.356384 -14.306417 692.71869 3.5733111e-043
56.756077 -14.185699 692.50934 3.5733111e-043
57.155735 -14.064982 692.29993 3.5733111e-043
57.555428 -13.944259 692.09058 3.5733111e-043
57.955086 -13.823542 691.88116 3.5733111e-043
58.354778 -13.702825 691.67175 3.5733111e-043
58.75444 -13.5821 691.46234 3.5733111e-043
59.154125 -13.461383 691.25299 3.5733111e-043
59.553787 -13.340665 691.04364 3.5733111e-043
59.95348 -13.219949 690.83423 3.5733111e-043
60.353138 -13.099225 690.62482 3.5733111e-043
60.752831 -12.978507 690.41541 3.5733111e-043
61.152489 -12.85779 690.20605 3.5733111e-043
61.552181 -12.737065 689.99664 3.5733111e-043
61.951839 -12.616349 689.78729 3.5733111e-043
62.351532 -12.495631 689.57788 3.5733111e-043
61.505939 -12.42142 686.87915 3.5733111e-043
61.903893 -12.301225 686.67072 3.5733111e-043
63.49567 -11.82043 685.83679 3.5733111e-043
63.893627 -11.700228 685.62823 3.5733111e-043
81.255554 -10.246311 712.65625 3.5733111e-043
81.673325 -10.120127 712.43732 3.5733111e-043
82.091095 -9.9939346 712.21844 3.5733111e-043
83.344421 -9.6153822 711.56183 3.5733111e-043
83.762192 -9.4891977 711.34302 3.5733111e-043
84.17997 -9.3630066 711.12415 3.5733111e-043
84.59774 -9.2368221 710.90527 3.5733111e-043
85.015518 -9.1106377 710.68634 3.5733111e-043
86.849762 -8.9199934 713.18866 3.5733111e-043
85.851067 -8.8582706 710.24866 3.5733111e-043
86.268845 -8.7320786 710.02972 3.5733111e-043
86.686615 -8.6058941 709.81091 3.5733111e-043
87.104393 -8.4797096 709.59204 3.5733111e-043
87.522171 -8.3535252 709.37317 3.5733111e-043
87.939934 -8.2273417 709.15424 3.5733111e-043
88.357712 -8.1011572 708.93542 3.5733111e-043
87.356781 -8.0434017 706.02783 3.5733111e-043
87.772659 -7.9177861 705.80994 3.5733111e-043
86.778793 -7.8611131 702.92932 3.5733111e-043
87.192818 -7.7360578 702.71246 3.5733111e-043
87.606842 -7.6110024 702.49554 3.5733111e-043
88.020859 -7.4859548 702.27869 3.5733111e-043
88.434883 -7.3608994 702.06171 3.5733111e-043
88.848907 -7.2358437 701.84485 3.5733111e-043
87.854691 -7.1824794 698.99487 3.5733111e-043
88.266853 -7.0579848 698.77893 3.5733111e-043
88.679047 -6.9334898 698.56299 3.5733111e-043
89.091217 -6.8089957 698.34705 3.5733111e-043
89.50338 -6.6845007 698.1311 3.5733111e-043
88.510674 -6.6338239 695.31042 3.5733111e-043
88.921005 -6.509882 695.0954 3.5733111e-043
89.331367 -6.3859391 694.88043 3.5733111e-043
88.343773 -6.3367987 692.08655 3.5733111e-043
88.752312 -6.2134094 691.87256 3.5733111e-043
89.160843 -6.090013 691.65851 3.5733111e-043
89.569351 -5.9666233 691.44446 3.5733111e-043
89.977882 -5.8432341 691.23047 3.5733111e-043
90.386421 -5.7198377 691.01648 3.5733111e-043
89.398544 -5.673852 688.25189 3.5733111e-043
89.805275 -5.5510082 688.03882 3.5733111e-043
90.212006 -5.428164 687.82574 3.5733111e-043
90.618721 -5.3053122 687.61267 3.5733111e-043
89.634209 -5.2613616 684.87518 3.5733111e-043
90.039146 -5.1390471 684.66302 3.5733111e-043
90.444084 -5.0167413 684.45087 3.5733111e-043
90.849022 -4.8944345 684.23877 3.5733111e-043
91.25396 -4.77212 684.02655 3.5733111e-043
91.65889 -4.6498141 683.81445 3.5733111e-043
92.063835 -4.5275073 683.60229 3.5733111e-043
92.468758 -4.405201 683.39014 3.5733111e-043
91.480438 -4.3653584 680.68311 3.5733111e-043
46.481754 -18.111532 701.13477 3.5733111e-043
46.883152 -17.990284 700.92438 3.5733111e-043
47.284584 -17.869045 700.71411 3.5733111e-043
47.685982 -17.747799 700.50385 3.5733111e-043
48.08741 -17.626553 700.29352 3.5733111e-043
48.488804 -17.505306 700.08325 3.5733111e-043
48.890232 -17.384066 699.87292 3.5733111e-043
49.291634 -17.262817 699.6626 3.5733111e-043
49.693062 -17.141573 699.45233 3.5733111e-043
50.094463 -17.020332 699.242 3.5733111e-043
50.495888 -16.899086 699.03174 3.5733111e-043
50.897289 -16.77784 698.82147 3.5733111e-043
51.298717 -16.656593 698.61108 3.5733111e-043
51.70015 -16.535355 698.40082 3.5733111e-043
52.101547 -16.414106 698.19049 3.5733111e-043
52.502949 -16.292862 697.98022 3.5733111e-043
52.904373 -16.171621 697.76996 3.5733111e-043
53.305805 -16.050373 697.55957 3.5733111e-043
53.707203 -15.929129 697.3493 3.5733111e-043
54.108635 -15.807889 697.13904 3.5733111e-043
54.510033 -15.686643 696.92871 3.5733111e-043
54.911457 -15.565396 696.71844 3.5733111e-043
55.312859 -15.444149 696.50812 3.5733111e-043
55.714283 -15.32291 696.29779 3.5733111e-043
54.893707 -15.236126 693.55829 3.5733111e-043
56.517113 -15.080417 695.8772 3.5733111e-043
56.91851 -14.959177 695.66693 3.5733111e-043
56.09272 -14.873975 692.93011 3.5733111e-043
56.492413 -14.753251 692.7207 3.5733111e-043
56.892067 -14.632534 692.51135 3.5733111e-043
57.291759 -14.511816 692.30194 3.5733111e-043
57.691422 -14.391091 692.09259 3.5733111e-043
58.091114 -14.270376 691.88318 3.5733111e-043
58.490772 -14.149658 691.67377 3.5733111e-043
58.890465 -14.028934 691.46436 3.5733111e-043
59.290123 -13.908216 691.255 3.5733111e-043
59.689812 -13.787498 691.04559 3.5733111e-043
60.089474 -13.666782 690.83624 3.5733111e-043
60.489166 -13.546059 690.62689 3.5733111e-043
60.888832 -13.425342 690.41742 3.5733111e-043
61.288517 -13.304624 690.20807 3.5733111e-043
61.688179 -13.1839 689.99866 3.5733111e-043
62.087872 -13.063183 689.78931 3.5733111e-043
62.48756 -12.942465 689.5799 3.5733111e-043
61.641354 -12.866317 686.88116 3.5733111e-043
62.039307 -12.746121 686.67273 3.5733111e-043
63.631115 -12.265326 685.83881 3.5733111e-043
64.02906 -12.145124 685.63025 3.5733111e-043
83.21553 -10.530003 715.16956 3.5733111e-043
83.635185 -10.403243 714.94971 3.5733111e-043
84.054886 -10.276484 714.72986 3.5733111e-043
83.904358 -9.956255 711.34509 3.5733111e-043
84.322128 -9.8300629 711.12622 3.5733111e-043
84.739906 -9.7038784 710.90735 3.5733111e-043
85.157684 -9.5776939 710.68848 3.5733111e-043
85.575455 -9.4515095 710.4696 3.5733111e-043
85.993233 -9.3253269 710.25079 3.5733111e-043
86.411003 -9.1991348 710.03186 3.5733111e-043
86.828781 -9.0729504 709.81299 3.5733111e-043
87.246559 -8.9467659 709.59418 3.5733111e-043
87.66433 -8.8205814 709.37524 3.5733111e-043
88.0821 -8.694397 709.15637 3.5733111e-043
88.499878 -8.5682125 708.9375 3.5733111e-043
87.498306 -8.5083532 706.02991 3.5733111e-043
87.914215 -8.3827372 705.81201 3.5733111e-043
86.919701 -8.3239832 702.93146 3.5733111e-043
87.333725 -8.1989279 702.71454 3.5733111e-043
87.747749 -8.0738726 702.49768 3.5733111e-043
88.161766 -7.9488249 702.2807 3.5733111e-043
88.57579 -7.8237696 702.06384 3.5733111e-043
88.989815 -7.6987143 701.84692 3.5733111e-043
87.994949 -7.6432834 698.99695 3.5733111e-043
88.407112 -7.5187883 698.78101 3.5733111e-043
88.819313 -7.3942938 698.56506 3.5733111e-043
89.231476 -7.2697988 698.34912 3.5733111e-043
89.643639 -7.1453047 698.13324 3.5733111e-043
90.055832 -7.0208092 697.9173 3.5733111e-043
89.060654 -6.9686341 695.09747 3.5733111e-043
89.471016 -6.8446918 694.88251 3.5733111e-043
88.482803 -6.7935228 692.08862 3.5733111e-043
88.89135 -6.6701331 691.87457 3.5733111e-043
89.299881 -6.5467367 691.66052 3.5733111e-043
89.708382 -6.4233475 691.44653 3.5733111e-043
90.116913 -6.2999582 691.23254 3.5733111e-043
89.130257 -6.2514067 688.46698 3.5733111e-043
89.536964 -6.1285548 688.25391 3.5733111e-043
89.943695 -6.0057111 688.04089 3.5733111e-043
90.350395 -5.8828673 687.82782 3.5733111e-043
89.367081 -5.8363733 685.08936 3.5733111e-043
89.772018 -5.714067 684.8772 3.5733111e-043
90.176956 -5.5917525 684.66504 3.5733111e-043
89.198616 -5.5467339 681.95251 3.5733111e-043
89.601791 -5.424964 681.74121 3.5733111e-043
90.004959 -5.3031874 681.53003 3.5733111e-043
90.408119 -5.1814113 681.31879 3.5733111e-043
90.811295 -5.0596347 681.1076 3.5733111e-043
91.214462 -4.9378657 680.89642 3.5733111e-043
91.61763 -4.8160887 680.68512 3.5733111e-043
46.618332 -18.560303 701.13678 3.5733111e-043
47.01976 -18.439056 700.92645 3.5733111e-043
47.421192 -18.317816 700.71613 3.5733111e-043
47.82259 -18.196568 700.50586 3.5733111e-043
48.224022 -18.075323 700.29553 3.5733111e-043
48.625416 -17.954075 700.08527 3.5733111e-043
49.026848 -17.832836 699.875 3.5733111e-043
49.428246 -17.71159 699.66461 3.5733111e-043
49.829678 -17.590343 699.45435 3.5733111e-043
50.231075 -17.469105 699.24402 3.5733111e-043
50.6325 -17.347857 699.03375 3.5733111e-043
51.033897 -17.226612 698.82349 3.5733111e-043
51.435326 -17.105364 698.6131 3.5733111e-043
51.836727 -16.984123 698.40283 3.5733111e-043
52.238155 -16.862877 698.19257 3.5733111e-043
53.856979 -16.713602 700.54187 3.5733111e-043
54.260147 -16.591837 700.33063 3.5733111e-043
54.663315 -16.47006 700.11945 3.5733111e-043
55.066479 -16.348282 699.90814 3.5733111e-043
54.245243 -16.25666 697.14105 3.5733111e-043
54.646641 -16.135412 696.93073 3.5733111e-043
55.048069 -16.014166 696.72046 3.5733111e-043
55.449467 -15.89292 696.51013 3.5733111e-043
55.850899 -15.771681 696.2998 3.5733111e-043
55.029732 -15.68296 693.5603 3.5733111e-043
56.653728 -15.529187 695.87921 3.5733111e-043
57.055122 -15.407948 695.66895 3.5733111e-043
56.228745 -15.320802 692.93213 3.5733111e-043
56.628437 -15.200077 692.72272 3.5733111e-043
57.028095 -15.07936 692.51337 3.5733111e-043
57.427788 -14.958642 692.30396 3.5733111e-043
57.827446 -14.837917 692.0946 3.5733111e-043
58.227139 -14.717202 691.88519 3.5733111e-043
58.626801 -14.596484 691.67578 3.5733111e-043
59.026489 -14.47576 691.46637 3.5733111e-043
59.426151 -14.355042 691.25702 3.5733111e-043
61.069294 -14.195504 693.56592 3.5733111e-043
61.470688 -14.074256 693.35565 3.5733111e-043
63.477776 -13.46803 692.30414 3.5733111e-043
61.776794 -13.311221 686.88318 3.5733111e-043
62.174747 -13.191027 686.67468 3.5733111e-043
63.766529 -12.710232 685.84082 3.5733111e-043
64.164482 -12.59003 685.63226 3.5733111e-043
83.358345 -10.999195 715.17163 3.5733111e-043
83.77803 -10.872435 714.95178 3.5733111e-043
84.197693 -10.745674 714.73193 3.5733111e-043
85.456726 -10.365402 714.07233 3.5733111e-043
84.464333 -10.297127 711.12836 3.5733111e-043
86.296089 -10.111881 713.63257 3.5733111e-043
85.299873 -10.044758 710.69061 3.5733111e-043
85.717651 -9.9185743 710.47174 3.5733111e-043
86.135429 -9.7923908 710.25281 3.5733111e-043
86.5532 -9.6662064 710.034 3.5733111e-043
86.970978 -9.5400143 709.81512 3.5733111e-043
87.388748 -9.4138308 709.59625 3.5733111e-043
87.806526 -9.2876453 709.37732 3.5733111e-043
88.224297 -9.1614609 709.15851 3.5733111e-043
87.223938 -9.0989208 706.24988 3.5733111e-043
87.639854 -8.9733057 706.03204 3.5733111e-043
88.055733 -8.8476896 705.81409 3.5733111e-043
88.471619 -8.7220736 705.59625 3.5733111e-043
87.474632 -8.6617899 702.71661 3.5733111e-043
87.888618 -8.5367346 702.49976 3.5733111e-043
88.302673 -8.4116859 702.28278 3.5733111e-043
88.716698 -8.2866316 702.06592 3.5733111e-043
89.130714 -8.1615763 701.849 3.5733111e-043
88.135208 -8.1040869 698.99902 3.5733111e-043
88.547409 -7.9795923 698.78308 3.5733111e-043
88.959572 -7.8550973 698.56714 3.5733111e-043
89.371735 -7.7306023 698.3512 3.5733111e-043
89.783928 -7.6061077 698.13531 3.5733111e-043
90.196091 -7.4816122 697.91931 3.5733111e-043
89.200302 -7.4273868 695.09955 3.5733111e-043
89.610634 -7.3034444 694.88458 3.5733111e-043
88.621849 -7.2502465 692.0907 3.5733111e-043
89.03038 -7.1268573 691.87665 3.5733111e-043
89.438881 -7.0034609 691.6626 3.5733111e-043
89.84742 -6.8800716 691.44861 3.5733111e-043
90.255959 -6.7566819 691.23456 3.5733111e-043
89.268646 -6.7061176 688.46906 3.5733111e-043
89.675385 -6.5832739 688.25598 3.5733111e-043
90.082115 -6.460422 688.04291 3.5733111e-043
90.488823 -6.3375711 687.82983 3.5733111e-043
89.504883 -6.2890863 685.09137 3.5733111e-043
89.909828 -6.16678 684.87927 3.5733111e-043
90.314758 -6.044466 684.66711 3.5733111e-043
89.335815 -5.9974642 681.95453 3.5733111e-043
89.738983 -5.8756943 681.74329 3.5733111e-043
90.142151 -5.7539182 681.53204 3.5733111e-043
90.545319 -5.6321416 681.32086 3.5733111e-043
90.948517 -5.510365 681.10962 3.5733111e-043
91.351654 -5.3885961 680.89844 3.5733111e-043
91.754852 -5.2668195 680.68713 3.5733111e-043
46.75494 -19.009073 701.13879 3.5733111e-043
47.156372 -18.887825 700.92847 3.5733111e-043
47.55777 -18.766588 700.71814 3.5733111e-043
47.959198 -18.64534 700.50787 3.5733111e-043
48.36063 -18.524094 700.29755 3.5733111e-043
48.762024 -18.402847 700.08728 3.5733111e-043
49.163456 -18.281607 699.87701 3.5733111e-043
49.564854 -18.160358 699.66663 3.5733111e-043
49.966286 -18.039114 699.45636 3.5733111e-043
50.367683 -17.917873 699.24609 3.5733111e-043
50.769112 -17.796627 699.03577 3.5733111e-043
51.170509 -17.675383 698.8255 3.5733111e-043
51.571941 -17.554134 698.61511 3.5733111e-043
51.973339 -17.432896 698.40485 3.5733111e-043
53.591007 -17.286112 700.75507 3.5733111e-043
53.994175 -17.164335 700.54388 3.5733111e-043
54.397343 -17.042559 700.33264 3.5733111e-043
54.800503 -16.920788 700.12146 3.5733111e-043
55.203674 -16.799013 699.91022 3.5733111e-043
55.606842 -16.677238 699.69897 3.5733111e-043
54.783245 -16.584185 696.93274 3.5733111e-043
55.184677 -16.462936 696.72247 3.5733111e-043
56.816345 -16.311914 699.06537 3.5733111e-043
55.987507 -16.220451 696.30182 3.5733111e-043
55.16573 -16.129778 693.56232 3.5733111e-043
55.565418 -16.00906 693.35291 3.5733111e-043
57.19173 -15.856719 695.67096 3.5733111e-043
56.364773 -15.767628 692.9342 3.5733111e-043
56.764439 -15.646903 692.72473 3.5733111e-043
57.164124 -15.526186 692.51538 3.5733111e-043
57.563786 -15.405468 692.30597 3.5733111e-043
57.963478 -15.284744 692.09662 3.5733111e-043
58.363136 -15.164028 691.88721 3.5733111e-043
58.762829 -15.043311 691.6778 3.5733111e-043
59.162487 -14.922585 691.46838 3.5733111e-043
63.614384 -13.9168 692.30615 3.5733111e-043
61.912209 -13.756119 686.88519 3.5733111e-043
63.90197 -13.155129 685.84277 3.5733111e-043
83.08152 -11.595131 715.39362 3.5733111e-043
83.501183 -11.46837 715.17377 3.5733111e-043
83.920845 -11.341611 714.95392 3.5733111e-043
84.3405 -11.21485 714.73401 3.5733111e-043
85.179863 -10.961338 714.29431 3.5733111e-043
85.599533 -10.834579 714.07446 3.5733111e-043
86.019226 -10.707818 713.85455 3.5733111e-043
86.438896 -10.581058 713.6347 3.5733111e-043
86.858559 -10.454298 713.41486 3.5733111e-043
87.278229 -10.327538 713.19495 3.5733111e-043
86.277588 -10.259447 710.25494 3.5733111e-043
86.695366 -10.133263 710.03607 3.5733111e-043
87.113144 -10.007071 709.8172 3.5733111e-043
87.530914 -9.880887 709.59833 3.5733111e-043
87.948685 -9.7547016 709.37946 3.5733111e-043
86.949608 -9.6894894 706.46991 3.5733111e-043
87.365494 -9.5638723 706.25201 3.5733111e-043
86.373436 -9.4998178 703.36945 3.5733111e-043
87.201485 -9.2497158 702.93561 3.5733111e-043
86.214638 -9.1873417 700.08081 3.5733111e-043
88.029526 -8.9996042 702.50183 3.5733111e-043
87.038963 -8.9383516 699.64886 3.5733111e-043
87.451157 -8.8138571 699.43298 3.5733111e-043
87.863312 -8.6893702 699.21704 3.5733111e-043
88.275482 -8.5648746 699.0011 3.5733111e-043
88.687675 -8.4403801 698.78516 3.5733111e-043
89.099838 -8.3158865 698.56921 3.5733111e-043
89.512001 -8.191391 698.35327 3.5733111e-043
89.924194 -8.0668955 698.13739 3.5733111e-043
90.336357 -7.9424009 697.92139 3.5733111e-043
89.339951 -7.8861389 695.10162 3.5733111e-043
89.750282 -7.7621965 694.88666 3.5733111e-043
88.76088 -7.706955 692.09277 3.5733111e-043
89.169388 -7.5835662 691.87866 3.5733111e-043
89.577919 -7.4601693 691.66467 3.5733111e-043
