# .PCD v0.7 - Point Cloud Data file format
VERSION 0.7
FIELDS x y z rgb
SIZE 4 4 4 4
TYPE F F F F
COUNT 1 1 1 1
WIDTH 1033
HEIGHT 1
VIEWPOINT 0 0 0 1 0 0 0
POINTS 1033
DATA ascii
18.114868 -3.1918869 663.49463 3.5733111e-043
18.170418 -2.710228 663.52826 3.5733111e-043
18.225975 -2.228569 663.56189 3.5733111e-043
18.281528 -1.7468948 663.59552 3.5733111e-043
18.337082 -1.2652359 663.62915 3.5733111e-043
18.392632 -0.78357697 663.66272 3.5733111e-043
18.448189 -0.30190277 663.69635 3.5733111e-043
18.503738 0.17975616 663.72998 3.5733111e-043
18.559296 0.66142273 663.76361 3.5733111e-043
18.614845 1.1430893 663.79724 3.5733111e-043
18.670399 1.6247482 663.83087 3.5733111e-043
18.725952 2.1064224 663.8645 3.5733111e-043
18.781506 2.5880814 663.89813 3.5733111e-043
18.837059 3.0697479 663.93176 3.5733111e-043
19.176628 3.9806747 661.00531 3.5733111e-043
19.231934 4.4601822 661.03876 3.5733111e-043
19.287235 4.939682 661.07227 3.5733111e-043
19.342537 5.4191818 661.10571 3.5733111e-043
19.397842 5.8986893 661.13922 3.5733111e-043
19.453148 6.3781967 661.17267 3.5733111e-043
19.50845 6.8576965 661.20618 3.5733111e-043
19.281483 6.9230728 664.20081 3.5733111e-043
19.337036 7.4047318 664.23444 3.5733111e-043
19.674362 8.2962112 661.30658 3.5733111e-043
19.729664 8.7757111 661.34009 3.5733111e-043
19.784969 9.2552109 661.37354 3.5733111e-043
19.840271 9.7347183 661.40704 3.5733111e-043
19.895576 10.214226 661.44049 3.5733111e-043
19.950882 10.693726 661.474 3.5733111e-043
20.006184 11.173225 661.50745 3.5733111e-043
19.78146 11.258049 664.50348 3.5733111e-043
19.837013 11.739723 664.53711 3.5733111e-043
19.892567 12.221382 664.57074 3.5733111e-043
19.94812 12.703049 664.60437 3.5733111e-043
20.003674 13.184715 664.638 3.5733111e-043
20.059227 13.666382 664.67163 3.5733111e-043
20.114777 14.148048 664.70526 3.5733111e-043
20.170334 14.629707 664.73889 3.5733111e-043
20.225883 15.111374 664.77252 3.5733111e-043
20.559219 15.968262 661.84222 3.5733111e-043
20.614525 16.447769 661.87573 3.5733111e-043
20.66983 16.927269 661.90918 3.5733111e-043
20.725132 17.406776 661.94269 3.5733111e-043
20.780437 17.886284 661.97614 3.5733111e-043
20.835739 18.365784 662.00964 3.5733111e-043
20.891045 18.845284 662.04309 3.5733111e-043
20.94635 19.324791 662.0766 3.5733111e-043
21.001652 19.804298 662.11005 3.5733111e-043
16.99218 -25.092903 650.22021 3.5733111e-043
17.046753 -24.619774 650.25323 3.5733111e-043
17.672607 -23.06382 644.61609 3.5733111e-043
17.12545 -19.99781 656.42432 3.5733111e-043
16.888802 -20.053246 659.38409 3.5733111e-043
16.944107 -19.573738 659.4176 3.5733111e-043
16.999413 -19.094238 659.45105 3.5733111e-043
17.05471 -18.614731 659.48456 3.5733111e-043
17.110016 -18.135231 659.51801 3.5733111e-043
17.165321 -17.655724 659.55151 3.5733111e-043
17.220627 -17.176224 659.58496 3.5733111e-043
17.275932 -16.696724 659.61847 3.5733111e-043
17.33123 -16.217216 659.65192 3.5733111e-043
17.386536 -15.737717 659.68542 3.5733111e-043
17.441841 -15.258202 659.71887 3.5733111e-043
17.497147 -14.778702 659.75238 3.5733111e-043
17.552444 -14.299202 659.78583 3.5733111e-043
17.60775 -13.819695 659.81934 3.5733111e-043
17.427773 -13.365852 662.84137 3.5733111e-043
17.483322 -12.884193 662.875 3.5733111e-043
17.538872 -12.402534 662.90863 3.5733111e-043
17.594429 -11.92086 662.94226 3.5733111e-043
17.649979 -11.439201 662.97589 3.5733111e-043
17.705536 -10.957527 663.00946 3.5733111e-043
17.761086 -10.475868 663.04309 3.5733111e-043
17.525185 -10.488686 666.05963 3.5733111e-043
17.580986 -10.004845 666.09338 3.5733111e-043
17.636795 -9.5210037 666.1272 3.5733111e-043
17.692596 -9.0371475 666.16095 3.5733111e-043
17.748405 -8.5533066 666.19476 3.5733111e-043
17.804207 -8.0694504 666.22852 3.5733111e-043
17.860008 -7.5856094 666.26233 3.5733111e-043
17.915817 -7.1017532 666.29608 3.5733111e-043
17.971619 -6.6179123 666.3299 3.5733111e-043
18.31662 -5.6592178 663.37939 3.5733111e-043
18.372169 -5.1775589 663.41302 3.5733111e-043
18.427727 -4.6959 663.44666 3.5733111e-043
18.483276 -4.2142258 663.48029 3.5733111e-043
18.53883 -3.7325668 663.51392 3.5733111e-043
18.594383 -3.2508926 663.54755 3.5733111e-043
18.649937 -2.7692337 663.58118 3.5733111e-043
18.70549 -2.2875595 663.61481 3.5733111e-043
18.761044 -1.8059006 663.64844 3.5733111e-043
18.816597 -1.324234 663.68207 3.5733111e-043
18.872147 -0.84256744 663.7157 3.5733111e-043
18.927704 -0.36090851 663.74933 3.5733111e-043
18.983253 0.12075806 663.78296 3.5733111e-043
19.038811 0.60242462 663.81659 3.5733111e-043
19.09436 1.0840912 663.85022 3.5733111e-043
19.149914 1.5657578 663.88385 3.5733111e-043
19.205467 2.0474167 663.91748 3.5733111e-043
19.261021 2.5290909 663.95111 3.5733111e-043
19.316574 3.0107498 663.98474 3.5733111e-043
19.653992 3.9219437 661.05798 3.5733111e-043
19.709297 4.4014435 661.09149 3.5733111e-043
19.764599 4.8809433 661.12494 3.5733111e-043
19.819901 5.3604507 661.15845 3.5733111e-043
19.875206 5.8399582 661.19189 3.5733111e-043
19.930511 6.319458 661.2254 3.5733111e-043
19.985813 6.7989578 661.25885 3.5733111e-043
19.760998 6.8640671 664.25372 3.5733111e-043
19.816551 7.3457413 664.28735 3.5733111e-043
20.151726 8.2374725 661.35931 3.5733111e-043
20.207027 8.7169724 661.39276 3.5733111e-043
20.262333 9.1964798 661.42627 3.5733111e-043
20.317635 9.6759872 661.45972 3.5733111e-043
20.37294 10.155487 661.49323 3.5733111e-043
20.428246 10.634987 661.52667 3.5733111e-043
20.483547 11.114494 661.56018 3.5733111e-043
20.260975 11.199059 664.5564 3.5733111e-043
20.316528 11.680717 664.59003 3.5733111e-043
20.372082 12.162392 664.62366 3.5733111e-043
20.427635 12.644051 664.65729 3.5733111e-043
20.483189 13.125717 664.69092 3.5733111e-043
20.538742 13.607384 664.72455 3.5733111e-043
20.594292 14.089043 664.75818 3.5733111e-043
20.649849 14.570717 664.79181 3.5733111e-043
20.705399 15.052376 664.82544 3.5733111e-043
21.036583 15.909523 661.89496 3.5733111e-043
21.091888 16.38903 661.92841 3.5733111e-043
21.147194 16.868538 661.96191 3.5733111e-043
21.202496 17.348045 661.99536 3.5733111e-043
21.257801 17.827545 662.02887 3.5733111e-043
21.313103 18.307045 662.06232 3.5733111e-043
21.368408 18.786552 662.09583 3.5733111e-043
21.423714 19.26606 662.12927 3.5733111e-043
21.479015 19.74556 662.16278 3.5733111e-043
18.384544 -26.623238 635.99036 3.5733111e-043
18.437931 -26.160355 636.02271 3.5733111e-043
17.463203 -25.150856 650.27222 3.5733111e-043
17.517776 -24.677727 650.30524 3.5733111e-043
17.857162 -23.660545 647.49048 3.5733111e-043
17.600677 -20.056282 656.47681 3.5733111e-043
17.366165 -20.111977 659.43683 3.5733111e-043
17.421471 -19.632469 659.47028 3.5733111e-043
17.476768 -19.152969 659.50378 3.5733111e-043
17.532074 -18.673462 659.53723 3.5733111e-043
17.587379 -18.193962 659.57074 3.5733111e-043
17.642685 -17.714455 659.60419 3.5733111e-043
17.40731 -17.75985 662.59161 3.5733111e-043
17.46286 -17.278191 662.62524 3.5733111e-043
17.51841 -16.796516 662.65887 3.5733111e-043
17.573967 -16.314857 662.6925 3.5733111e-043
17.629517 -15.833199 662.72614 3.5733111e-043
17.685074 -15.351524 662.75977 3.5733111e-043
17.740623 -14.869865 662.7934 3.5733111e-043
17.796181 -14.388191 662.82703 3.5733111e-043
17.85173 -13.906532 662.86066 3.5733111e-043
17.907288 -13.424858 662.89429 3.5733111e-043
17.962837 -12.943199 662.92792 3.5733111e-043
18.018394 -12.46154 662.96155 3.5733111e-043
18.073944 -11.979866 662.99518 3.5733111e-043
17.839455 -11.999489 666.01147 3.5733111e-043
17.895264 -11.515648 666.04523 3.5733111e-043
17.951065 -11.031792 666.07904 3.5733111e-043
18.006874 -10.547951 666.11279 3.5733111e-043
18.062675 -10.06411 666.14661 3.5733111e-043
18.118477 -9.5802689 666.18036 3.5733111e-043
18.174286 -9.0964127 666.21417 3.5733111e-043
18.230087 -8.6125717 666.24792 3.5733111e-043
18.285892 -8.1287155 666.28174 3.5733111e-043
18.341698 -7.6448746 666.31549 3.5733111e-043
18.397503 -7.1610184 666.34924 3.5733111e-043
18.453308 -6.6771774 666.38306 3.5733111e-043
18.796135 -5.7182236 663.43237 3.5733111e-043
18.851685 -5.2365646 663.46594 3.5733111e-043
18.907242 -4.7549057 663.49957 3.5733111e-043
18.962791 -4.2732315 663.5332 3.5733111e-043
19.018345 -3.7915573 663.56683 3.5733111e-043
19.073898 -3.3098984 663.60046 3.5733111e-043
19.129452 -2.8282394 663.63409 3.5733111e-043
19.185005 -2.3465652 663.66772 3.5733111e-043
19.240559 -1.8648987 663.70135 3.5733111e-043
19.296112 -1.3832321 663.73499 3.5733111e-043
19.351662 -0.90157318 663.76862 3.5733111e-043
19.407219 -0.41990662 663.80225 3.5733111e-043
19.462769 0.061759949 663.83588 3.5733111e-043
19.518326 0.54341888 663.86951 3.5733111e-043
19.573875 1.0250931 663.90314 3.5733111e-043
19.629429 1.506752 663.93677 3.5733111e-043
19.684982 1.9884186 663.9704 3.5733111e-043
19.740536 2.4700851 664.00403 3.5733111e-043
19.796089 2.9517441 664.03766 3.5733111e-043
20.131351 3.8631973 661.11072 3.5733111e-043
20.186657 4.3427048 661.14417 3.5733111e-043
20.241959 4.8222122 661.17767 3.5733111e-043
20.297264 5.301712 661.21112 3.5733111e-043
20.073853 5.3600693 664.20581 3.5733111e-043
20.407871 6.2607193 661.27808 3.5733111e-043
20.463173 6.7402267 661.31158 3.5733111e-043
20.240513 6.805069 664.3067 3.5733111e-043
20.296066 7.2867355 664.34033 3.5733111e-043
20.629086 8.1787338 661.41199 3.5733111e-043
20.684391 8.6582413 661.4455 3.5733111e-043
20.739693 9.1377411 661.47894 3.5733111e-043
20.794998 9.6172409 661.51245 3.5733111e-043
20.850304 10.096748 661.5459 3.5733111e-043
20.629387 10.176727 664.54211 3.5733111e-043
20.684937 10.658394 664.57574 3.5733111e-043
20.74049 11.140053 664.60931 3.5733111e-043
20.796043 11.621719 664.64294 3.5733111e-043
20.851597 12.103386 664.67657 3.5733111e-043
20.90715 12.585045 664.71021 3.5733111e-043
20.962704 13.066719 664.74384 3.5733111e-043
21.018257 13.548378 664.77747 3.5733111e-043
21.073807 14.030045 664.8111 3.5733111e-043
21.129364 14.511711 664.84473 3.5733111e-043
21.184914 14.99337 664.87836 3.5733111e-043
21.513947 15.850792 661.94763 3.5733111e-043
21.569252 16.330299 661.98114 3.5733111e-043
21.351574 16.43837 664.97925 3.5733111e-043
21.679859 17.289299 662.0481 3.5733111e-043
21.735161 17.768806 662.08154 3.5733111e-043
21.790466 18.248314 662.11505 3.5733111e-043
21.845772 18.727814 662.1485 3.5733111e-043
21.901073 19.207314 662.18201 3.5733111e-043
21.956375 19.686821 662.21545 3.5733111e-043
19.118561 -26.136955 633.31647 3.5733111e-043
19.171719 -25.676056 633.34869 3.5733111e-043
17.934227 -25.208809 650.32422 3.5733111e-043
17.9888 -24.73568 650.35724 3.5733111e-043
18.043365 -24.26255 650.39026 3.5733111e-043
18.097939 -23.789406 650.42328 3.5733111e-043
17.843529 -20.170715 659.4895 3.5733111e-043
17.609055 -20.22718 662.47644 3.5733111e-043
17.664612 -19.745506 662.51007 3.5733111e-043
17.720161 -19.263847 662.5437 3.5733111e-043
17.775719 -18.782173 662.57733 3.5733111e-043
17.831268 -18.300514 662.61096 3.5733111e-043
17.886818 -17.818855 662.64459 3.5733111e-043
17.942375 -17.337181 662.67822 3.5733111e-043
17.997925 -16.855522 662.71185 3.5733111e-043
18.053482 -16.373848 662.74548 3.5733111e-043
18.109032 -15.892189 662.77911 3.5733111e-043
18.164589 -15.41053 662.81268 3.5733111e-043
18.220139 -14.928856 662.84631 3.5733111e-043
18.275696 -14.447197 662.87994 3.5733111e-043
18.331245 -13.965523 662.91357 3.5733111e-043
18.386799 -13.483864 662.9472 3.5733111e-043
18.442352 -13.002205 662.98083 3.5733111e-043
18.497906 -12.520531 663.01447 3.5733111e-043
18.265339 -12.54261 666.03088 3.5733111e-043
18.321144 -12.058769 666.06464 3.5733111e-043
18.376949 -11.574913 666.09845 3.5733111e-043
18.432755 -11.091072 666.1322 3.5733111e-043
18.488556 -10.607216 666.16595 3.5733111e-043
18.544361 -10.123375 666.19977 3.5733111e-043
18.600166 -9.639534 666.23352 3.5733111e-043
18.655972 -9.1556778 666.26733 3.5733111e-043
18.711777 -8.6718369 666.30109 3.5733111e-043
18.767582 -8.1879959 666.3349 3.5733111e-043
18.823387 -7.704155 666.36865 3.5733111e-043
18.879189 -7.2202988 666.40247 3.5733111e-043
18.934994 -6.7364578 666.43622 3.5733111e-043
19.27565 -5.7772293 663.48529 3.5733111e-043
19.3312 -5.2955551 663.51892 3.5733111e-043
19.386757 -4.8138962 663.55255 3.5733111e-043
19.442307 -4.3322372 663.58618 3.5733111e-043
19.49786 -3.850563 663.61981 3.5733111e-043
19.553413 -3.3689041 663.65344 3.5733111e-043
19.608967 -2.8872299 663.68707 3.5733111e-043
19.66452 -2.405571 663.7207 3.5733111e-043
19.720074 -1.9238968 663.75433 3.5733111e-043
19.775627 -1.4422379 663.78796 3.5733111e-043
19.831177 -0.96057892 663.82159 3.5733111e-043
19.886734 -0.47890472 663.85522 3.5733111e-043
19.942284 0.0027542114 663.88885 3.5733111e-043
19.997841 0.48442078 663.92242 3.5733111e-043
20.053391 0.96608734 663.95605 3.5733111e-043
20.108944 1.4477463 663.98969 3.5733111e-043
20.164497 1.9294205 664.02332 3.5733111e-043
20.220051 2.4110794 664.05695 3.5733111e-043
20.275604 2.892746 664.09058 3.5733111e-043
20.608719 3.8044662 661.16339 3.5733111e-043
20.664024 4.2839737 661.1969 3.5733111e-043
20.719326 4.7634735 661.23035 3.5733111e-043
20.774628 5.2429733 661.26385 3.5733111e-043
20.553368 5.3010712 664.25873 3.5733111e-043
20.885239 6.2019882 661.33081 3.5733111e-043
20.94054 6.681488 661.36426 3.5733111e-043
20.720028 6.7460709 664.35962 3.5733111e-043
20.775581 7.2277298 664.39325 3.5733111e-043
21.106453 8.1200027 661.46472 3.5733111e-043
21.161755 8.5995026 661.49817 3.5733111e-043
21.21706 9.0790024 661.53168 3.5733111e-043
21.272362 9.5585098 661.56512 3.5733111e-043
21.327667 10.038017 661.59863 3.5733111e-043
21.108902 10.117729 664.59503 3.5733111e-043
21.164452 10.599388 664.62866 3.5733111e-043
21.220005 11.081047 664.66229 3.5733111e-043
21.275558 11.562721 664.69592 3.5733111e-043
21.331112 12.04438 664.72955 3.5733111e-043
21.386665 12.526047 664.76318 3.5733111e-043
21.442219 13.007713 664.79681 3.5733111e-043
21.497772 13.48938 664.83044 3.5733111e-043
21.553322 13.971046 664.86407 3.5733111e-043
21.608879 14.452705 664.89771 3.5733111e-043
21.664429 14.934372 664.93134 3.5733111e-043
21.719986 15.416039 664.96497 3.5733111e-043
21.775536 15.897705 664.9986 3.5733111e-043
21.831089 16.379372 665.03223 3.5733111e-043
21.886642 16.861031 665.0658 3.5733111e-043
21.942196 17.342705 665.09943 3.5733111e-043
21.997749 17.824364 665.13306 3.5733111e-043
22.323135 18.669075 662.20123 3.5733111e-043
22.108856 18.787697 665.20032 3.5733111e-043
22.164406 19.269356 665.23395 3.5733111e-043
19.577393 -26.193413 633.36713 3.5733111e-043
19.63055 -25.732513 633.39935 3.5733111e-043
18.176407 -25.345139 653.28271 3.5733111e-043
18.231216 -24.869896 653.31586 3.5733111e-043
18.28603 -24.394661 653.34906 3.5733111e-043
18.340839 -23.919426 653.38226 3.5733111e-043
18.320892 -20.229454 659.54224 3.5733111e-043
18.08857 -20.286171 662.52936 3.5733111e-043
18.144127 -19.804512 662.56299 3.5733111e-043
18.199677 -19.322838 662.59662 3.5733111e-043
18.25523 -18.841179 662.63025 3.5733111e-043
18.310783 -18.35952 662.66388 3.5733111e-043
18.366337 -17.877846 662.69751 3.5733111e-043
18.42189 -17.396187 662.73114 3.5733111e-043
18.477444 -16.914513 662.76477 3.5733111e-043
18.532997 -16.432854 662.7984 3.5733111e-043
18.588551 -15.951195 662.83203 3.5733111e-043
18.644104 -15.469521 662.86566 3.5733111e-043
18.699654 -14.987862 662.89929 3.5733111e-043
18.755211 -14.506187 662.93292 3.5733111e-043
18.81076 -14.024529 662.96655 3.5733111e-043
18.866314 -13.542854 663.00018 3.5733111e-043
18.921867 -13.061195 663.03381 3.5733111e-043
18.977421 -12.579536 663.06744 3.5733111e-043
18.747025 -12.601875 666.08405 3.5733111e-043
18.802826 -12.118034 666.1178 3.5733111e-043
18.858631 -11.634178 666.15161 3.5733111e-043
18.914436 -11.150337 666.18536 3.5733111e-043
18.970242 -10.666481 666.21918 3.5733111e-043
19.026047 -10.18264 666.25293 3.5733111e-043
19.081848 -9.6987991 666.28674 3.5733111e-043
19.137657 -9.2149429 666.3205 3.5733111e-043
19.193459 -8.731102 666.35431 3.5733111e-043
19.249264 -8.247261 666.38806 3.5733111e-043
19.305069 -7.7634201 666.42188 3.5733111e-043
19.360874 -7.2795639 666.45563 3.5733111e-043
19.416679 -6.795723 666.48938 3.5733111e-043
19.472481 -6.311882 666.52319 3.5733111e-043
19.52829 -5.8280258 666.55695 3.5733111e-043
19.584091 -5.3441849 666.59076 3.5733111e-043
19.639896 -4.8603287 666.62451 3.5733111e-043
19.695702 -4.3764877 666.65833 3.5733111e-043
19.751507 -3.8926468 666.69208 3.5733111e-043
19.807312 -3.4087906 666.72589 3.5733111e-043
19.863113 -2.9249496 666.75964 3.5733111e-043
19.918922 -2.4411087 666.79346 3.5733111e-043
19.974724 -1.9572601 666.82721 3.5733111e-043
20.030529 -1.4734116 666.86102 3.5733111e-043
20.086334 -0.98957062 666.89478 3.5733111e-043
20.142136 -0.50572205 666.92859 3.5733111e-043
20.197945 -0.021873474 666.96234 3.5733111e-043
20.253746 0.46196747 666.99609 3.5733111e-043
20.309551 0.94581604 667.02991 3.5733111e-043
20.365356 1.4296646 667.06366 3.5733111e-043
20.699566 2.3520813 664.10992 3.5733111e-043
20.755119 2.8337479 664.14355 3.5733111e-043
20.810673 3.3154068 664.17719 3.5733111e-043
20.866226 3.797081 664.21082 3.5733111e-043
20.921776 4.2787399 664.24445 3.5733111e-043
20.977333 4.7604065 664.27808 3.5733111e-043
20.755989 4.8165817 667.30017 3.5733111e-043
21.088436 5.723732 664.34534 3.5733111e-043
21.14399 6.2054062 664.37897 3.5733111e-043
21.199543 6.6870651 664.41254 3.5733111e-043
21.255096 7.1687317 664.44617 3.5733111e-043
21.035011 7.235817 667.46906 3.5733111e-043
21.090816 7.7196579 667.50281 3.5733111e-043
21.421757 8.6137314 664.54706 3.5733111e-043
21.47731 9.0953903 664.58069 3.5733111e-043
21.53286 9.5770569 664.61432 3.5733111e-043
21.588417 10.058723 664.64795 3.5733111e-043
21.643967 10.54039 664.68158 3.5733111e-043
21.69952 11.022049 664.71521 3.5733111e-043
21.755074 11.503716 664.74884 3.5733111e-043
21.810627 11.985382 664.78247 3.5733111e-043
21.86618 12.467049 664.8161 3.5733111e-043
21.921734 12.948708 664.84973 3.5733111e-043
21.977287 13.430382 664.88336 3.5733111e-043
22.032837 13.912041 664.91699 3.5733111e-043
22.088394 14.393707 664.95062 3.5733111e-043
22.143944 14.875374 664.98425 3.5733111e-043
22.199501 15.357033 665.01788 3.5733111e-043
22.255051 15.838707 665.05151 3.5733111e-043
22.310604 16.320366 665.08514 3.5733111e-043
22.366158 16.802032 665.11877 3.5733111e-043
22.421711 17.283699 665.1524 3.5733111e-043
22.477264 17.765358 665.18604 3.5733111e-043
22.532818 18.247032 665.21967 3.5733111e-043
22.588371 18.728691 665.2533 3.5733111e-043
22.643921 19.210358 665.28693 3.5733111e-043
22.699478 19.692024 665.32056 3.5733111e-043
18.420746 -25.482689 656.26758 3.5733111e-043
18.4758 -25.005318 656.3009 3.5733111e-043
18.530861 -24.527962 656.33423 3.5733111e-043
18.585915 -24.050591 656.36761 3.5733111e-043
18.512531 -20.826851 662.54871 3.5733111e-043
18.568085 -20.345177 662.58228 3.5733111e-043
18.623638 -19.863518 662.61591 3.5733111e-043
18.679192 -19.381844 662.64954 3.5733111e-043
18.734745 -18.900185 662.68317 3.5733111e-043
18.790298 -18.418526 662.7168 3.5733111e-043
18.845848 -17.936852 662.75043 3.5733111e-043
18.901405 -17.455193 662.78406 3.5733111e-043
18.956955 -16.973518 662.81769 3.5733111e-043
19.012508 -16.491859 662.85132 3.5733111e-043
19.068062 -16.010201 662.88495 3.5733111e-043
19.123615 -15.528526 662.91858 3.5733111e-043
19.179169 -15.046867 662.95221 3.5733111e-043
19.234722 -14.565193 662.98584 3.5733111e-043
19.290276 -14.083534 663.01947 3.5733111e-043
19.345829 -13.60186 663.0531 3.5733111e-043
19.401382 -13.120201 663.08673 3.5733111e-043
19.456932 -12.638542 663.12036 3.5733111e-043
19.22871 -12.66114 666.13721 3.5733111e-043
19.284515 -12.177299 666.17102 3.5733111e-043
19.340321 -11.693443 666.20477 3.5733111e-043
19.396126 -11.209602 666.23859 3.5733111e-043
19.451927 -10.725746 666.27234 3.5733111e-043
19.507732 -10.241905 666.30615 3.5733111e-043
19.563538 -9.7580643 666.3399 3.5733111e-043
19.619343 -9.2742081 666.37366 3.5733111e-043
19.675148 -8.7903671 666.40747 3.5733111e-043
19.730953 -8.3065262 666.44122 3.5733111e-043
19.786758 -7.8226852 666.47504 3.5733111e-043
19.84256 -7.338829 666.50879 3.5733111e-043
19.898365 -6.8549881 666.5426 3.5733111e-043
19.95417 -6.3711472 666.57635 3.5733111e-043
20.009975 -5.887291 666.61017 3.5733111e-043
20.065781 -5.40345 666.64392 3.5733111e-043
20.121582 -4.9196091 666.67773 3.5733111e-043
20.177391 -4.4357529 666.71149 3.5733111e-043
20.233192 -3.9519119 666.7453 3.5733111e-043
20.288998 -3.468071 666.77905 3.5733111e-043
20.344803 -2.9842148 666.81281 3.5733111e-043
20.400608 -2.5003738 666.84662 3.5733111e-043
20.456413 -2.0165329 666.88037 3.5733111e-043
20.512215 -1.5326767 666.91418 3.5733111e-043
20.568024 -1.0488358 666.94794 3.5733111e-043
20.623825 -0.56499481 666.98175 3.5733111e-043
20.67963 -0.08114624 667.0155 3.5733111e-043
20.735435 0.40270233 667.04932 3.5733111e-043
20.791241 0.88654327 667.08307 3.5733111e-043
20.847046 1.3703995 667.11688 3.5733111e-043
20.902847 1.8542404 667.15063 3.5733111e-043
20.958652 2.338089 667.18445 3.5733111e-043
21.014458 2.8219376 667.2182 3.5733111e-043
21.070263 3.3057785 667.25201 3.5733111e-043
21.401291 4.2197342 664.29736 3.5733111e-043
21.456844 4.7014084 664.33099 3.5733111e-043
21.512398 5.1830673 664.36462 3.5733111e-043
21.567951 5.6647339 664.39825 3.5733111e-043
21.623505 6.1464005 664.43188 3.5733111e-043
21.679054 6.6280594 664.46552 3.5733111e-043
21.460896 6.6927032 667.48846 3.5733111e-043
21.516701 7.1765442 667.52222 3.5733111e-043
21.572502 7.6603928 667.55603 3.5733111e-043
21.628311 8.1442337 667.58978 3.5733111e-043
21.684113 8.6280899 667.6236 3.5733111e-043
22.012375 9.5180588 664.6673 3.5733111e-043
22.067928 9.9997177 664.70093 3.5733111e-043
22.123482 10.481392 664.73456 3.5733111e-043
22.179031 10.963051 664.76819 3.5733111e-043
22.234589 11.44471 664.80182 3.5733111e-043
22.290138 11.926384 664.83545 3.5733111e-043
22.345695 12.408043 664.86902 3.5733111e-043
22.401245 12.889709 664.90265 3.5733111e-043
22.456799 13.371376 664.93628 3.5733111e-043
22.512352 13.853035 664.96991 3.5733111e-043
22.567905 14.334709 665.00354 3.5733111e-043
22.623459 14.816368 665.03717 3.5733111e-043
22.679012 15.298035 665.0708 3.5733111e-043
22.734566 15.779701 665.10443 3.5733111e-043
22.790115 16.26136 665.13806 3.5733111e-043
22.845673 16.743034 665.17169 3.5733111e-043
22.901222 17.224693 665.20532 3.5733111e-043
22.956779 17.70636 665.23895 3.5733111e-043
23.012329 18.188026 665.27258 3.5733111e-043
23.067883 18.669693 665.30621 3.5733111e-043
22.85601 18.788857 668.33295 3.5733111e-043
22.911816 19.272697 668.36676 3.5733111e-043
22.967621 19.756546 668.40051 3.5733111e-043
18.895977 -25.541161 656.32007 3.5733111e-043
18.951035 -25.063789 656.35339 3.5733111e-043
19.006088 -24.586433 656.38672 3.5733111e-043
19.061146 -24.109062 656.42004 3.5733111e-043
18.992046 -20.885841 662.60162 3.5733111e-043
19.0476 -20.404182 662.63525 3.5733111e-043
19.103153 -19.922508 662.66888 3.5733111e-043
19.158707 -19.440849 662.70251 3.5733111e-043
19.21426 -18.959175 662.73615 3.5733111e-043
19.269814 -18.477516 662.76978 3.5733111e-043
19.325363 -17.995857 662.80341 3.5733111e-043
19.38092 -17.514183 662.83704 3.5733111e-043
19.43647 -17.032524 662.87067 3.5733111e-043
19.492023 -16.55085 662.9043 3.5733111e-043
19.547577 -16.069191 662.93793 3.5733111e-043
19.60313 -15.587532 662.97156 3.5733111e-043
19.658684 -15.105858 663.00519 3.5733111e-043
19.714237 -14.624199 663.03882 3.5733111e-043
19.769791 -14.142525 663.07239 3.5733111e-043
19.825344 -13.660866 663.10602 3.5733111e-043
19.880898 -13.179207 663.13965 3.5733111e-043
19.936447 -12.697533 663.17328 3.5733111e-043
19.992004 -12.215874 663.20691 3.5733111e-043
20.047554 -11.7342 663.24054 3.5733111e-043
19.822006 -11.752724 666.25793 3.5733111e-043
19.877808 -11.268867 666.29175 3.5733111e-043
19.933617 -10.785027 666.3255 3.5733111e-043
19.989418 -10.301186 666.35931 3.5733111e-043
20.045223 -9.8173447 666.39307 3.5733111e-043
20.101028 -9.3334885 666.42688 3.5733111e-043
20.156834 -8.8496475 666.46063 3.5733111e-043
20.212639 -8.3657913 666.49445 3.5733111e-043
20.26844 -7.8819504 666.5282 3.5733111e-043
20.324249 -7.3980942 666.56201 3.5733111e-043
20.380051 -6.9142532 666.59576 3.5733111e-043
20.435856 -6.4304123 666.62958 3.5733111e-043
20.491661 -5.9465714 666.66333 3.5733111e-043
20.547462 -5.4627304 666.69708 3.5733111e-043
20.603271 -4.9788742 666.7309 3.5733111e-043
20.659073 -4.4950333 666.76465 3.5733111e-043
20.714878 -4.0111771 666.79846 3.5733111e-043
20.770683 -3.5273361 666.83221 3.5733111e-043
20.826488 -3.0434952 666.86603 3.5733111e-043
20.882294 -2.559639 666.89978 3.5733111e-043
20.938095 -2.075798 666.93359 3.5733111e-043
20.993904 -1.5919495 666.96735 3.5733111e-043
21.049706 -1.1081009 667.00116 3.5733111e-043
21.105511 -0.62425995 667.03491 3.5733111e-043
21.161316 -0.14041901 667.06873 3.5733111e-043
21.217121 0.34343719 667.10248 3.5733111e-043
21.272926 0.82727814 667.13629 3.5733111e-043
21.328728 1.3111267 667.17004 3.5733111e-043
21.384537 1.7949753 667.2038 3.5733111e-043
21.440338 2.2788162 667.23761 3.5733111e-043
21.496143 2.7626648 667.27136 3.5733111e-043
21.551949 3.2465134 667.30518 3.5733111e-043
21.880806 4.1607437 664.35028 3.5733111e-043
21.936359 4.6424026 664.38391 3.5733111e-043
21.991913 5.1240692 664.41754 3.5733111e-043
22.047466 5.6057358 664.45117 3.5733111e-043
22.10302 6.0874023 664.4848 3.5733111e-043
22.158569 6.5690689 664.51843 3.5733111e-043
21.942581 6.6334305 667.54163 3.5733111e-043
21.998383 7.1172714 667.57544 3.5733111e-043
22.054192 7.6011276 667.60919 3.5733111e-043
22.109993 8.0849686 667.64294 3.5733111e-043
22.165798 8.5688171 667.67676 3.5733111e-043
22.221603 9.0526657 667.71051 3.5733111e-043
22.277409 9.5365067 667.74432 3.5733111e-043
22.333214 10.020355 667.77808 3.5733111e-043
22.389019 10.504204 667.81189 3.5733111e-043
22.444824 10.988045 667.84564 3.5733111e-043
22.500626 11.471893 667.87946 3.5733111e-043
22.556431 11.955742 667.91321 3.5733111e-043
22.612236 12.439583 667.94702 3.5733111e-043
22.668041 12.923431 667.98077 3.5733111e-043
22.723846 13.40728 668.01459 3.5733111e-043
22.779648 13.891121 668.04834 3.5733111e-043
22.835457 14.374969 668.08215 3.5733111e-043
22.891258 14.858818 668.11591 3.5733111e-043
22.947063 15.342659 668.14966 3.5733111e-043
23.002869 15.826508 668.18347 3.5733111e-043
23.058674 16.310356 668.21722 3.5733111e-043
23.114479 16.794197 668.25104 3.5733111e-043
23.17028 17.278046 668.28479 3.5733111e-043
23.226089 17.761894 668.3186 3.5733111e-043
23.281891 18.245735 668.35236 3.5733111e-043
23.337696 18.729584 668.38617 3.5733111e-043
23.393501 19.213432 668.41992 3.5733111e-043
23.449303 19.697273 668.45374 3.5733111e-043
19.144638 -25.680206 659.33209 3.5733111e-043
19.199944 -25.200699 659.36554 3.5733111e-043
19.255245 -24.721199 659.39905 3.5733111e-043
19.310551 -24.241684 659.4325 3.5733111e-043
19.471561 -20.944847 662.65454 3.5733111e-043
19.527115 -20.463188 662.68817 3.5733111e-043
19.582668 -19.981514 662.7218 3.5733111e-043
19.638222 -19.499855 662.75543 3.5733111e-043
19.693775 -19.018181 662.78906 3.5733111e-043
19.749329 -18.536522 662.82269 3.5733111e-043
19.804878 -18.054863 662.85632 3.5733111e-043
19.860435 -17.573189 662.88995 3.5733111e-043
19.915985 -17.09153 662.92358 3.5733111e-043
19.689842 -17.134285 665.93958 3.5733111e-043
19.745647 -16.650444 665.97333 3.5733111e-043
19.801453 -16.166603 666.00714 3.5733111e-043
19.857254 -15.682762 666.04089 3.5733111e-043
19.913063 -15.198906 666.07465 3.5733111e-043
19.968864 -14.715065 666.10846 3.5733111e-043
20.02467 -14.231224 666.14221 3.5733111e-043
20.080475 -13.747368 666.17603 3.5733111e-043
20.13628 -13.263527 666.20978 3.5733111e-043
20.192085 -12.779671 666.24359 3.5733111e-043
20.247887 -12.29583 666.27734 3.5733111e-043
20.303692 -11.811989 666.31116 3.5733111e-043
20.359497 -11.328133 666.34491 3.5733111e-043
20.415302 -10.844292 666.37872 3.5733111e-043
20.471107 -10.360451 666.41248 3.5733111e-043
20.526909 -9.8766098 666.44629 3.5733111e-043
20.582718 -9.3927536 666.48004 3.5733111e-043
20.638519 -8.9089127 666.51379 3.5733111e-043
20.694324 -8.4250565 666.54761 3.5733111e-043
20.75013 -7.9412155 666.58136 3.5733111e-043
20.805935 -7.4573593 666.61517 3.5733111e-043
20.86174 -6.9735184 666.64893 3.5733111e-043
20.917542 -6.4896774 666.68274 3.5733111e-043
20.973351 -6.0058365 666.71649 3.5733111e-043
21.029152 -5.5219955 666.75031 3.5733111e-043
21.084957 -5.0381393 666.78406 3.5733111e-043
21.140762 -4.5542984 666.81787 3.5733111e-043
21.196568 -4.0704575 666.85162 3.5733111e-043
21.252373 -3.5866013 666.88544 3.5733111e-043
21.308174 -3.1027603 666.91919 3.5733111e-043
21.363983 -2.6189041 666.953 3.5733111e-043
21.419785 -2.1350632 666.98676 3.5733111e-043
21.47559 -1.6512146 667.02051 3.5733111e-043
21.531395 -1.167366 667.05432 3.5733111e-043
21.587196 -0.68352509 667.08807 3.5733111e-043
21.643005 -0.19968414 667.12189 3.5733111e-043
21.698807 0.28417206 667.15564 3.5733111e-043
21.754612 0.768013 667.18945 3.5733111e-043
21.810417 1.2518616 667.22321 3.5733111e-043
21.866222 1.7357101 667.25702 3.5733111e-043
21.922028 2.2195511 667.29077 3.5733111e-043
21.977829 2.7033997 667.32458 3.5733111e-043
22.033638 3.1872482 667.35834 3.5733111e-043
22.089439 3.6710892 667.39215 3.5733111e-043
22.415874 4.5834045 664.43689 3.5733111e-043
22.20105 4.6387863 667.45972 3.5733111e-043
22.526981 5.54673 664.50415 3.5733111e-043
22.31266 5.6064758 667.52722 3.5733111e-043
22.638084 6.5100632 664.57141 3.5733111e-043
22.424271 6.5741653 667.59479 3.5733111e-043
22.480072 7.0580063 667.6286 3.5733111e-043
22.535877 7.5418625 667.66235 3.5733111e-043
22.591682 8.0257034 667.69617 3.5733111e-043
22.647488 8.509552 667.72992 3.5733111e-043
22.703293 8.9934006 667.76373 3.5733111e-043
22.759094 9.4772415 667.79749 3.5733111e-043
22.814903 9.9610901 667.8313 3.5733111e-043
22.870705 10.444939 667.86505 3.5733111e-043
22.92651 10.92878 667.89886 3.5733111e-043
22.982315 11.412628 667.93262 3.5733111e-043
23.038116 11.896477 667.96643 3.5733111e-043
23.093925 12.380318 668.00018 3.5733111e-043
23.149727 12.864166 668.03394 3.5733111e-043
23.205532 13.348015 668.06775 3.5733111e-043
23.261337 13.831856 668.1015 3.5733111e-043
23.317142 14.315704 668.13531 3.5733111e-043
23.372948 14.799553 668.16907 3.5733111e-043
23.428749 15.283394 668.20288 3.5733111e-043
23.484558 15.767242 668.23663 3.5733111e-043
23.540359 16.251091 668.27045 3.5733111e-043
23.596165 16.734932 668.3042 3.5733111e-043
23.65197 17.218781 668.33801 3.5733111e-043
23.707775 17.702629 668.37177 3.5733111e-043
23.76358 18.18647 668.40558 3.5733111e-043
23.819382 18.670319 668.43933 3.5733111e-043
23.875191 19.154167 668.47308 3.5733111e-043
23.930992 19.638008 668.5069 3.5733111e-043
19.622002 -25.738945 659.38477 3.5733111e-043
19.677307 -25.259438 659.41827 3.5733111e-043
19.732609 -24.779938 659.45172 3.5733111e-043
19.787914 -24.300423 659.48523 3.5733111e-043
19.951077 -21.003853 662.70752 3.5733111e-043
20.00663 -20.522179 662.74115 3.5733111e-043
20.062183 -20.04052 662.77478 3.5733111e-043
20.117737 -19.558846 662.80841 3.5733111e-043
20.17329 -19.077187 662.84204 3.5733111e-043
19.948311 -19.128944 665.8576 3.5733111e-043
20.284393 -18.113853 662.90924 3.5733111e-043
20.059917 -18.161263 665.92517 3.5733111e-043
20.115723 -17.677406 665.95892 3.5733111e-043
20.171528 -17.193565 665.99274 3.5733111e-043
20.227333 -16.709724 666.02649 3.5733111e-043
20.283138 -16.225868 666.0603 3.5733111e-043
20.338943 -15.742027 666.09406 3.5733111e-043
20.394745 -15.258171 666.12787 3.5733111e-043
20.45055 -14.77433 666.16162 3.5733111e-043
20.506355 -14.290489 666.19543 3.5733111e-043
20.56216 -13.806648 666.22919 3.5733111e-043
20.617966 -13.322792 666.263 3.5733111e-043
20.673767 -12.838951 666.29675 3.5733111e-043
20.729572 -12.35511 666.33057 3.5733111e-043
20.785378 -11.871254 666.36432 3.5733111e-043
20.841183 -11.387413 666.39807 3.5733111e-043
20.896988 -10.903557 666.43188 3.5733111e-043
20.952793 -10.419716 666.46564 3.5733111e-043
21.008598 -9.9358749 666.49945 3.5733111e-043
21.0644 -9.4520187 666.5332 3.5733111e-043
21.120205 -8.9681778 666.56702 3.5733111e-043
21.17601 -8.4843369 666.60077 3.5733111e-043
21.231815 -8.0004959 666.63458 3.5733111e-043
21.287621 -7.5166397 666.66833 3.5733111e-043
21.343426 -7.0327988 666.70215 3.5733111e-043
21.399231 -6.5489578 666.7359 3.5733111e-043
21.455032 -6.0651016 666.76971 3.5733111e-043
21.510838 -5.5812607 666.80347 3.5733111e-043
21.566643 -5.0974045 666.83728 3.5733111e-043
21.622448 -4.6135635 666.87103 3.5733111e-043
21.678253 -4.1297226 666.90479 3.5733111e-043
21.734055 -3.6458664 666.9386 3.5733111e-043
21.789864 -3.1620255 666.97235 3.5733111e-043
21.845665 -2.6781845 667.00616 3.5733111e-043
21.90147 -2.1943283 667.03992 3.5733111e-043
21.957275 -1.7104874 667.07373 3.5733111e-043
22.013081 -1.2266388 667.10748 3.5733111e-043
22.068886 -0.74279022 667.1413 3.5733111e-043
22.124687 -0.25894928 667.17505 3.5733111e-043
22.180496 0.22489929 667.20886 3.5733111e-043
22.236298 0.70874786 667.24261 3.5733111e-043
22.562073 1.634407 664.28802 3.5733111e-043
22.617622 2.1160812 664.32166 3.5733111e-043
22.67318 2.5977402 664.35529 3.5733111e-043
22.728729 3.0794067 664.38892 3.5733111e-043
22.784283 3.5610733 664.42255 3.5733111e-043
22.839836 4.0427322 664.45618 3.5733111e-043
22.89539 4.5244064 664.48981 3.5733111e-043
22.950943 5.0060654 664.52344 3.5733111e-043
23.006496 5.4877319 664.55707 3.5733111e-043
23.06205 5.9693985 664.5907 3.5733111e-043
23.117599 6.4510574 664.62433 3.5733111e-043
23.173157 6.9327316 664.65796 3.5733111e-043
23.228706 7.4143906 664.69159 3.5733111e-043
23.284264 7.8960571 664.72522 3.5733111e-043
23.339813 8.3777237 664.75885 3.5733111e-043
23.395367 8.8593903 664.79248 3.5733111e-043
23.45092 9.3410568 664.82611 3.5733111e-043
23.506474 9.8227158 664.85974 3.5733111e-043
23.562027 10.30439 664.89337 3.5733111e-043
23.617577 10.786049 664.927 3.5733111e-043
23.673134 11.267708 664.96063 3.5733111e-043
23.728683 11.749382 664.99426 3.5733111e-043
23.784241 12.231041 665.02789 3.5733111e-043
23.83979 12.712708 665.06152 3.5733111e-043
23.895344 13.194374 665.09515 3.5733111e-043
23.950897 13.676033 665.12878 3.5733111e-043
24.006451 14.157707 665.16235 3.5733111e-043
24.062004 14.639366 665.19598 3.5733111e-043
24.117558 15.121033 665.22961 3.5733111e-043
24.173111 15.602699 665.26324 3.5733111e-043
24.228661 16.084358 665.29688 3.5733111e-043
24.284218 16.566032 665.33051 3.5733111e-043
24.07785 16.675667 668.35736 3.5733111e-043
24.133656 17.159508 668.39117 3.5733111e-043
24.189461 17.643364 668.42493 3.5733111e-043
24.245266 18.127205 668.45874 3.5733111e-043
24.301071 18.611046 668.49249 3.5733111e-043
24.356873 19.094894 668.52631 3.5733111e-043
24.412678 19.578743 668.56006 3.5733111e-043
20.099365 -25.797676 659.4375 3.5733111e-043
20.154671 -25.318169 659.47095 3.5733111e-043
20.209972 -24.838669 659.50446 3.5733111e-043
20.265278 -24.359154 659.5379 3.5733111e-043
20.263931 -22.507835 662.65955 3.5733111e-043
20.430592 -21.062843 662.76044 3.5733111e-043
20.486145 -20.581184 662.79407 3.5733111e-043
20.541698 -20.09951 662.8277 3.5733111e-043
20.318386 -20.155907 665.8432 3.5733111e-043
20.374191 -19.67205 665.87701 3.5733111e-043
20.429993 -19.18821 665.91077 3.5733111e-043
20.763908 -18.172859 662.96222 3.5733111e-043
20.541603 -18.220528 665.97833 3.5733111e-043
20.597408 -17.736671 666.01215 3.5733111e-043
20.653214 -17.252831 666.0459 3.5733111e-043
20.709019 -16.76899 666.07971 3.5733111e-043
20.764824 -16.285133 666.11346 3.5733111e-043
20.820625 -15.801292 666.14728 3.5733111e-043
20.876434 -15.317436 666.18103 3.5733111e-043
20.932236 -14.833595 666.21484 3.5733111e-043
20.988041 -14.349754 666.2486 3.5733111e-043
21.043846 -13.865913 666.28235 3.5733111e-043
21.099651 -13.382057 666.31616 3.5733111e-043
21.155457 -12.898216 666.34991 3.5733111e-043
21.211258 -12.414375 666.38373 3.5733111e-043
21.267063 -11.930519 666.41748 3.5733111e-043
21.322868 -11.446678 666.45129 3.5733111e-043
21.378674 -10.962822 666.48505 3.5733111e-043
21.434479 -10.478981 666.51886 3.5733111e-043
21.49028 -9.9951401 666.55261 3.5733111e-043
21.546089 -9.5112839 666.58643 3.5733111e-043
21.601891 -9.0274429 666.62018 3.5733111e-043
21.657696 -8.543602 666.65399 3.5733111e-043
21.986076 -7.5762253 663.70203 3.5733111e-043
21.769306 -7.5759048 666.7215 3.5733111e-043
21.825111 -7.0920639 666.75531 3.5733111e-043
22.152737 -6.1312332 663.80292 3.5733111e-043
22.20829 -5.649559 663.83655 3.5733111e-043
22.263844 -5.1679001 663.87018 3.5733111e-043
22.319397 -4.6862411 663.90381 3.5733111e-043
22.37495 -4.204567 663.93744 3.5733111e-043
22.430504 -3.722908 663.97107 3.5733111e-043
22.486053 -3.2412338 664.0047 3.5733111e-043
22.541611 -2.7595749 664.03833 3.5733111e-043
22.59716 -2.2779007 664.07196 3.5733111e-043
22.652714 -1.7962418 664.10559 3.5733111e-043
22.708267 -1.3145828 664.13922 3.5733111e-043
22.763821 -0.83291626 664.17285 3.5733111e-043
22.819374 -0.35124969 664.20648 3.5733111e-043
22.874928 0.13040924 664.24011 3.5733111e-043
22.930481 0.61208344 664.27374 3.5733111e-043
22.986031 1.0937424 664.30737 3.5733111e-043
23.041588 1.5754089 664.341 3.5733111e-043
23.097137 2.0570755 664.37463 3.5733111e-043
23.152695 2.5387344 664.40826 3.5733111e-043
23.208244 3.0204086 664.44189 3.5733111e-043
23.263798 3.5020676 664.47546 3.5733111e-043
23.319351 3.9837341 664.50909 3.5733111e-043
23.374905 4.4654007 664.54272 3.5733111e-043
23.430458 4.9470596 664.57635 3.5733111e-043
23.486012 5.4287338 664.60999 3.5733111e-043
23.541565 5.9103928 664.64362 3.5733111e-043
23.597115 6.3920593 664.67725 3.5733111e-043
23.652672 6.8737259 664.71088 3.5733111e-043
23.708221 7.3553925 664.74451 3.5733111e-043
23.763779 7.837059 664.77814 3.5733111e-043
23.819328 8.318718 664.81177 3.5733111e-043
23.874882 8.8003922 664.8454 3.5733111e-043
23.930435 9.2820511 664.87903 3.5733111e-043
23.985989 9.7637177 664.91266 3.5733111e-043
24.041542 10.245384 664.94629 3.5733111e-043
24.097092 10.727043 664.97992 3.5733111e-043
24.152649 11.20871 665.01355 3.5733111e-043
24.208199 11.690376 665.04718 3.5733111e-043
24.263756 12.172035 665.08081 3.5733111e-043
24.319305 12.653709 665.11444 3.5733111e-043
24.374859 13.135368 665.14807 3.5733111e-043
24.430412 13.617035 665.1817 3.5733111e-043
24.485966 14.098701 665.21533 3.5733111e-043
24.541519 14.58036 665.24896 3.5733111e-043
24.597073 15.062035 665.28259 3.5733111e-043
24.652626 15.543694 665.31622 3.5733111e-043
24.708176 16.02536 665.34985 3.5733111e-043
24.763733 16.507027 665.38348 3.5733111e-043
24.559536 16.616402 668.41058 3.5733111e-043
24.615341 17.100243 668.44434 3.5733111e-043
24.671146 17.584091 668.47815 3.5733111e-043
24.726952 18.06794 668.5119 3.5733111e-043
24.782753 18.551781 668.54572 3.5733111e-043
24.838562 19.035622 668.57947 3.5733111e-043
24.894363 19.519478 668.61328 3.5733111e-043
20.576729 -25.856415 659.49017 3.5733111e-043
20.687336 -24.897408 659.55713 3.5733111e-043
20.742641 -24.417892 659.59064 3.5733111e-043
20.797943 -23.938393 659.62408 3.5733111e-043
20.853249 -23.458893 659.65759 3.5733111e-043
20.908554 -22.979385 659.69104 3.5733111e-043
20.963856 -22.499886 659.72455 3.5733111e-043
20.743446 -22.566841 662.71246 3.5733111e-043
21.074463 -21.540878 659.7915 3.5733111e-043
21.129768 -21.061378 659.82495 3.5733111e-043
20.910107 -21.121849 662.81335 3.5733111e-043
20.96566 -20.64019 662.84698 3.5733111e-043
21.021214 -20.158516 662.88062 3.5733111e-043
21.076767 -19.676857 662.91425 3.5733111e-043
21.13232 -19.195183 662.94788 3.5733111e-043
21.187874 -18.713524 662.98151 3.5733111e-043
21.243423 -18.231865 663.01514 3.5733111e-043
21.298981 -17.750191 663.04877 3.5733111e-043
21.35453 -17.268532 663.0824 3.5733111e-043
21.134903 -17.312096 666.09906 3.5733111e-043
21.465637 -16.305199 663.14966 3.5733111e-043
21.521191 -15.82354 663.18329 3.5733111e-043
21.576744 -15.341866 663.21692 3.5733111e-043
21.35812 -15.376701 666.23419 3.5733111e-043
21.413925 -14.89286 666.26801 3.5733111e-043
21.743404 -13.896873 663.31781 3.5733111e-043
21.798958 -13.415215 663.35144 3.5733111e-043
21.854507 -12.93354 663.38507 3.5733111e-043
21.910065 -12.451881 663.4187 3.5733111e-043
21.965614 -11.970207 663.45233 3.5733111e-043
22.021168 -11.488548 663.48596 3.5733111e-043
22.076721 -11.006874 663.51959 3.5733111e-043
22.132275 -10.525215 663.55322 3.5733111e-043
22.187828 -10.043556 663.58685 3.5733111e-043
22.243382 -9.561882 663.62048 3.5733111e-043
22.298935 -9.0802231 663.65411 3.5733111e-043
22.354488 -8.5985489 663.68774 3.5733111e-043
22.410042 -8.11689 663.72137 3.5733111e-043
22.465591 -7.635231 663.755 3.5733111e-043
22.521145 -7.1535721 663.78864 3.5733111e-043
22.576698 -6.6718979 663.8222 3.5733111e-043
22.632252 -6.190239 663.85583 3.5733111e-043
22.687805 -5.7085648 663.88947 3.5733111e-043
22.743359 -5.2269058 663.9231 3.5733111e-043
22.798912 -4.7452469 663.95673 3.5733111e-043
22.854465 -4.2635727 663.99036 3.5733111e-043
22.910019 -3.7818985 664.02399 3.5733111e-043
22.965569 -3.3002396 664.05762 3.5733111e-043
23.021126 -2.8185806 664.09125 3.5733111e-043
23.076675 -2.3369064 664.12488 3.5733111e-043
23.132229 -1.8552475 664.15851 3.5733111e-043
23.187782 -1.3735886 664.19214 3.5733111e-043
23.243336 -0.89191437 664.22577 3.5733111e-043
23.298889 -0.41025543 664.2594 3.5733111e-043
23.354443 0.071411133 664.29303 3.5733111e-043
23.409996 0.5530777 664.32666 3.5733111e-043
23.465546 1.0347366 664.36029 3.5733111e-043
23.521103 1.5164108 664.39392 3.5733111e-043
23.576653 1.9980698 664.42755 3.5733111e-043
23.63221 2.4797363 664.46118 3.5733111e-043
23.687759 2.9614029 664.49481 3.5733111e-043
23.743313 3.4430695 664.52844 3.5733111e-043
23.798866 3.924736 664.56207 3.5733111e-043
23.85442 4.406395 664.5957 3.5733111e-043
23.909973 4.8880615 664.62933 3.5733111e-043
23.965527 5.3697281 664.66296 3.5733111e-043
24.02108 5.8513947 664.69659 3.5733111e-043
24.07663 6.3330612 664.73022 3.5733111e-043
24.132187 6.8147202 664.76385 3.5733111e-043
24.187737 7.2963943 664.79749 3.5733111e-043
24.243294 7.7780533 664.83112 3.5733111e-043
24.298843 8.2597198 664.86475 3.5733111e-043
24.354397 8.7413864 664.89838 3.5733111e-043
24.40995 9.2230453 664.93201 3.5733111e-043
24.465504 9.7047195 664.96558 3.5733111e-043
24.521057 10.186378 664.99921 3.5733111e-043
24.576607 10.668037 665.03284 3.5733111e-043
24.632164 11.149712 665.06647 3.5733111e-043
24.687714 11.631371 665.1001 3.5733111e-043
24.743271 12.113037 665.13373 3.5733111e-043
24.79882 12.594704 665.16736 3.5733111e-043
24.854374 13.07637 665.20099 3.5733111e-043
24.909927 13.558037 665.23462 3.5733111e-043
24.965481 14.039696 665.26825 3.5733111e-043
25.021034 14.521362 665.30188 3.5733111e-043
25.076588 15.003029 665.33551 3.5733111e-043
25.132141 15.484695 665.36914 3.5733111e-043
25.187691 15.966362 665.40277 3.5733111e-043
25.243248 16.448021 665.4364 3.5733111e-043
25.298798 16.929695 665.47003 3.5733111e-043
25.097031 17.040977 668.49756 3.5733111e-043
25.152832 17.524818 668.53131 3.5733111e-043
25.208637 18.008667 668.56506 3.5733111e-043
25.264442 18.492516 668.59888 3.5733111e-043
25.320248 18.976357 668.63263 3.5733111e-043
25.376053 19.460205 668.66644 3.5733111e-043
21.054092 -25.915154 659.54291 3.5733111e-043
21.164696 -24.956146 659.60986 3.5733111e-043
21.220001 -24.476631 659.64331 3.5733111e-043
21.275307 -23.997131 659.67682 3.5733111e-043
21.330612 -23.517632 659.71027 3.5733111e-043
21.385914 -23.038124 659.74377 3.5733111e-043
21.441216 -22.558624 659.77722 3.5733111e-043
21.222961 -22.625847 662.76544 3.5733111e-043
21.551826 -21.599617 659.84418 3.5733111e-043
21.607128 -21.120117 659.87769 3.5733111e-043
21.66243 -20.64061 659.91113 3.5733111e-043
21.445175 -20.699181 662.89996 3.5733111e-043
21.500729 -20.217522 662.93359 3.5733111e-043
21.556282 -19.735847 662.96722 3.5733111e-043
21.611835 -19.254189 663.00085 3.5733111e-043
21.667389 -18.77253 663.03448 3.5733111e-043
21.722939 -18.290855 663.06812 3.5733111e-043
21.778496 -17.809196 663.10175 3.5733111e-043
22.104862 -16.804581 660.17896 3.5733111e-043
22.160164 -16.325081 660.21246 3.5733111e-043
22.215469 -15.845566 660.24591 3.5733111e-043
22.270775 -15.366066 660.27942 3.5733111e-043
22.326077 -14.886566 660.31287 3.5733111e-043
22.381382 -14.407059 660.34637 3.5733111e-043
22.167366 -14.437538 663.3371 3.5733111e-043
22.222919 -13.955864 663.37073 3.5733111e-043
22.278473 -13.474205 663.40436 3.5733111e-043
22.334023 -12.992546 663.43799 3.5733111e-043
22.38958 -12.510872 663.47162 3.5733111e-043
22.445129 -12.029213 663.50525 3.5733111e-043
22.500683 -11.547539 663.53888 3.5733111e-043
22.556236 -11.06588 663.57251 3.5733111e-043
22.61179 -10.584221 663.60614 3.5733111e-043
22.667343 -10.102547 663.63977 3.5733111e-043
22.722897 -9.6208878 663.6734 3.5733111e-043
22.77845 -9.1392136 663.70703 3.5733111e-043
22.834003 -8.6575546 663.74066 3.5733111e-043
22.889557 -8.1758957 663.77429 3.5733111e-043
22.945107 -7.6942215 663.80792 3.5733111e-043
23.00066 -7.2125626 663.84155 3.5733111e-043
23.056213 -6.7309036 663.87518 3.5733111e-043
23.111767 -6.2492294 663.90881 3.5733111e-043
23.16732 -5.7675705 663.94244 3.5733111e-043
23.222874 -5.2859116 663.97607 3.5733111e-043
23.278427 -4.8042374 664.0097 3.5733111e-043
23.333981 -4.3225784 664.04333 3.5733111e-043
23.389534 -3.8409042 664.07697 3.5733111e-043
23.445084 -3.3592453 664.1106 3.5733111e-043
23.500641 -2.8775711 664.14423 3.5733111e-043
23.55619 -2.3959122 664.17786 3.5733111e-043
23.611744 -1.9142456 664.21149 3.5733111e-043
23.667297 -1.432579 664.24512 3.5733111e-043
23.722851 -0.9509201 664.27869 3.5733111e-043
23.778404 -0.46925354 664.31232 3.5733111e-043
23.833958 0.012413025 664.34595 3.5733111e-043
23.889511 0.49407959 664.37958 3.5733111e-043
23.945061 0.97574615 664.41321 3.5733111e-043
24.000618 1.4574051 664.44684 3.5733111e-043
24.056168 1.9390793 664.48047 3.5733111e-043
24.111725 2.4207382 664.5141 3.5733111e-043
24.167274 2.9024048 664.54773 3.5733111e-043
24.222828 3.3840714 664.58136 3.5733111e-043
24.278381 3.8657303 664.61499 3.5733111e-043
24.333935 4.3474045 664.64862 3.5733111e-043
24.389488 4.8290634 664.68225 3.5733111e-043
24.445042 5.31073 664.71588 3.5733111e-043
24.500595 5.7923965 664.74951 3.5733111e-043
24.556145 6.2740555 664.78314 3.5733111e-043
24.611702 6.7557297 664.81677 3.5733111e-043
24.667252 7.2373886 664.8504 3.5733111e-043
24.722809 7.7190552 664.88403 3.5733111e-043
24.778358 8.2007217 664.91766 3.5733111e-043
24.833912 8.6823883 664.95129 3.5733111e-043
24.889465 9.1640549 664.98492 3.5733111e-043
24.945019 9.6457138 665.01855 3.5733111e-043
25.000572 10.127388 665.05219 3.5733111e-043
25.056122 10.609047 665.08582 3.5733111e-043
25.111679 11.090706 665.11945 3.5733111e-043
25.167229 11.57238 665.15308 3.5733111e-043
25.222786 12.054039 665.18671 3.5733111e-043
