# .PCD v0.7 - Point Cloud Data file format
VERSION 0.7
FIELDS x y z rgb
SIZE 4 4 4 4
TYPE F F F F
COUNT 1 1 1 1
WIDTH 1024
HEIGHT 1
VIEWPOINT 0 0 0 1 0 0 0
POINTS 1024
DATA ascii
91.148468 -28.617386 681.44775 2.3418052e-038
91.26825 -28.148888 681.31348 2.3418052e-038
91.388031 -27.680389 681.1792 2.3418052e-038
91.507782 -27.211891 681.04498 2.3418052e-038
91.627533 -26.743393 680.91071 2.3418052e-038
91.747314 -26.274895 680.77643 2.3418052e-038
91.867096 -25.806396 680.64215 2.3418052e-038
91.986847 -25.337898 680.50787 2.3418052e-038
92.106598 -24.8694 680.37366 2.3418052e-038
92.226379 -24.400902 680.23938 2.3418052e-038
92.346161 -23.9324 680.1051 2.3418052e-038
92.465912 -23.463905 679.97083 2.3418052e-038
92.585693 -22.995407 679.83655 2.3418052e-038
92.705444 -22.526905 679.70233 2.3418052e-038
92.825226 -22.058411 679.56805 2.3418052e-038
92.944977 -21.589909 679.43378 2.3418052e-038
93.064758 -21.12141 679.2995 2.3418052e-038
93.184509 -20.652912 679.16522 2.3418052e-038
93.304291 -20.184414 679.03101 2.3418052e-038
93.424042 -19.715916 678.89673 2.3418052e-038
93.543823 -19.247417 678.76245 2.3418052e-038
93.663605 -18.778919 678.62817 2.3418052e-038
91.899689 -18.553959 675.89417 2.3418052e-038
92.01889 -18.087631 675.7605 2.3418052e-038
92.138123 -17.621304 675.62689 2.3418052e-038
92.257324 -17.154976 675.49323 2.3418052e-038
92.376556 -16.688648 675.35956 2.3418052e-038
92.495758 -16.222321 675.22595 2.3418052e-038
92.61496 -15.755993 675.09229 2.3418052e-038
92.734192 -15.289665 674.95868 2.3418052e-038
92.853394 -14.823338 674.82501 2.3418052e-038
92.972626 -14.35701 674.69135 2.3418052e-038
94.981018 -13.625439 677.15131 2.3418052e-038
95.1008 -13.15694 677.01703 2.3418052e-038
93.330231 -12.958027 674.29047 2.3418052e-038
93.449463 -12.491699 674.1568 2.3418052e-038
93.568665 -12.025372 674.02313 2.3418052e-038
93.687897 -11.559044 673.88953 2.3418052e-038
93.807098 -11.092716 673.75586 2.3418052e-038
93.9263 -10.626389 673.62225 2.3418052e-038
94.045502 -10.160061 673.48859 2.3418052e-038
94.164734 -9.6937332 673.35492 2.3418052e-038
94.283936 -9.2274055 673.22131 2.3418052e-038
92.52536 -9.0475311 670.52478 2.3418052e-038
92.644012 -8.5833511 670.39172 2.3418052e-038
92.762665 -8.119175 670.25873 2.3418052e-038
92.881348 -7.6549988 670.12567 2.3418052e-038
93 -7.1908188 669.99268 2.3418052e-038
93.118652 -6.7266388 669.85962 2.3418052e-038
93.237335 -6.2624664 669.72662 2.3418052e-038
93.355988 -5.7982941 669.59357 2.3418052e-038
93.47464 -5.3341064 669.46057 2.3418052e-038
93.593323 -4.8699341 669.32751 2.3418052e-038
93.711975 -4.4057617 669.19452 2.3418052e-038
93.830627 -3.9415817 669.06146 2.3418052e-038
93.94931 -3.4774017 668.92847 2.3418052e-038
94.067963 -3.0132294 668.79541 2.3418052e-038
94.186615 -2.5490494 668.66241 2.3418052e-038
94.305298 -2.0848694 668.52936 2.3418052e-038
92.554657 -1.9386063 665.86682 2.3418052e-038
92.672791 -1.4765625 665.73438 2.3418052e-038
90.937622 -1.3337402 663.09668 2.3418052e-038
91.055206 -0.87380981 662.9649 2.3418052e-038
93.02713 -0.090423584 665.33716 2.3418052e-038
93.145264 0.37162781 665.20471 2.3418052e-038
93.263367 0.83367157 665.07233 2.3418052e-038
91.525513 0.96593475 662.43762 2.3418052e-038
91.643097 1.4258728 662.30585 2.3418052e-038
93.617737 2.2198105 664.67505 2.3418052e-038
93.73584 2.6818542 664.54266 2.3418052e-038
93.853973 3.1439056 664.41022 2.3418052e-038
93.972076 3.6059494 664.27783 2.3418052e-038
94.09021 4.0679932 664.14539 2.3418052e-038
84.985992 -54.55294 688.62439 2.3418052e-038
85.105743 -54.084442 688.49011 2.3418052e-038
85.225494 -53.615944 688.3559 2.3418052e-038
85.345276 -53.147446 688.22162 2.3418052e-038
85.465057 -52.678947 688.08734 2.3418052e-038
85.584808 -52.210449 687.95306 2.3418052e-038
85.704559 -51.741951 687.81879 2.3418052e-038
85.824341 -51.273453 687.68457 2.3418052e-038
85.944122 -50.804955 687.55029 2.3418052e-038
86.063873 -50.336456 687.41602 2.3418052e-038
86.183655 -49.867958 687.28174 2.3418052e-038
86.303406 -49.39946 687.14746 2.3418052e-038
86.423187 -48.930962 687.01324 2.3418052e-038
86.542938 -48.462463 686.87897 2.3418052e-038
86.66272 -47.993965 686.74469 2.3418052e-038
86.782471 -47.525467 686.61041 2.3418052e-038
86.902252 -47.056969 686.47614 2.3418052e-038
87.022003 -46.58847 686.34192 2.3418052e-038
87.141785 -46.119972 686.20764 2.3418052e-038
87.261566 -45.651474 686.07336 2.3418052e-038
87.381317 -45.182976 685.93909 2.3418052e-038
87.501068 -44.714478 685.80487 2.3418052e-038
87.62085 -44.245979 685.67059 2.3418052e-038
87.740631 -43.777481 685.53632 2.3418052e-038
87.860382 -43.308983 685.40204 2.3418052e-038
87.980164 -42.840485 685.26776 2.3418052e-038
88.099915 -42.371986 685.13354 2.3418052e-038
88.219696 -41.903488 684.99927 2.3418052e-038
88.339447 -41.43499 684.86499 2.3418052e-038
88.459229 -40.966492 684.73071 2.3418052e-038
88.578979 -40.497993 684.59644 2.3418052e-038
88.698761 -40.029495 684.46222 2.3418052e-038
90.696564 -39.414562 686.97937 2.3418052e-038
90.816864 -38.943871 686.84448 2.3418052e-038
90.937225 -38.473183 686.70953 2.3418052e-038
91.057526 -38.002495 686.57465 2.3418052e-038
89.297577 -37.687004 683.79089 2.3418052e-038
89.417358 -37.218506 683.65662 2.3418052e-038
89.53714 -36.750008 683.52234 2.3418052e-038
89.656891 -36.281509 683.38806 2.3418052e-038
91.65918 -35.649048 685.90021 2.3418052e-038
91.77951 -35.17836 685.76532 2.3418052e-038
91.899811 -34.707672 685.63043 2.3418052e-038
92.020172 -34.236984 685.49554 2.3418052e-038
92.140472 -33.766293 685.36066 2.3418052e-038
92.260803 -33.295601 685.22577 2.3418052e-038
92.381134 -32.824913 685.09088 2.3418052e-038
92.501465 -32.354225 684.95593 2.3418052e-038
92.621796 -31.883537 684.82104 2.3418052e-038
92.742126 -31.412846 684.68616 2.3418052e-038
92.862457 -30.942158 684.55127 2.3418052e-038
91.094086 -30.659531 681.77692 2.3418052e-038
91.213867 -30.191032 681.64264 2.3418052e-038
91.333649 -29.722534 681.50836 2.3418052e-038
91.4534 -29.254036 681.37408 2.3418052e-038
91.573151 -28.785538 681.23981 2.3418052e-038
91.692932 -28.317039 681.10559 2.3418052e-038
91.812714 -27.848541 680.97131 2.3418052e-038
91.932465 -27.380043 680.83704 2.3418052e-038
92.052246 -26.911545 680.70276 2.3418052e-038
92.171997 -26.443047 680.56854 2.3418052e-038
92.291779 -25.974548 680.43427 2.3418052e-038
92.41153 -25.50605 680.29999 2.3418052e-038
92.531311 -25.037552 680.16571 2.3418052e-038
92.651062 -24.569054 680.03143 2.3418052e-038
92.770844 -24.100552 679.89722 2.3418052e-038
92.890594 -23.632057 679.76294 2.3418052e-038
93.010376 -23.163559 679.62866 2.3418052e-038
93.130157 -22.695057 679.49438 2.3418052e-038
93.249908 -22.226563 679.36011 2.3418052e-038
93.369659 -21.75806 679.22589 2.3418052e-038
93.489441 -21.289562 679.09161 2.3418052e-038
93.609222 -20.821064 678.95734 2.3418052e-038
93.728973 -20.352566 678.82306 2.3418052e-038
93.848755 -19.884068 678.68878 2.3418052e-038
93.968506 -19.415569 678.55457 2.3418052e-038
94.088287 -18.947071 678.42029 2.3418052e-038
92.322418 -18.721333 675.68719 2.3418052e-038
92.44162 -18.255005 675.55359 2.3418052e-038
92.560852 -17.788677 675.41992 2.3418052e-038
92.680054 -17.32235 675.28625 2.3418052e-038
92.799286 -16.856022 675.15265 2.3418052e-038
92.918488 -16.389694 675.01898 2.3418052e-038
93.037689 -15.923367 674.88531 2.3418052e-038
93.156891 -15.457039 674.75171 2.3418052e-038
93.276123 -14.990711 674.61804 2.3418052e-038
93.395325 -14.524384 674.48444 2.3418052e-038
91.640839 -14.32008 671.78204 2.3418052e-038
95.525482 -13.325092 676.80908 2.3418052e-038
91.878143 -13.391724 671.51599 2.3418052e-038
91.996826 -12.927547 671.383 2.3418052e-038
92.115479 -12.463371 671.24994 2.3418052e-038
92.234161 -11.999191 671.11694 2.3418052e-038
92.352814 -11.535015 670.98389 2.3418052e-038
92.471466 -11.070839 670.85089 2.3418052e-038
92.590118 -10.606663 670.71783 2.3418052e-038
92.708801 -10.142487 670.58484 2.3418052e-038
92.827454 -9.6783066 670.45178 2.3418052e-038
91.083618 -9.4971848 667.7804 2.3418052e-038
91.201752 -9.035141 667.64801 2.3418052e-038
91.319855 -8.5730934 667.51556 2.3418052e-038
91.437958 -8.1110458 667.38318 2.3418052e-038
91.556091 -7.6490021 667.25073 2.3418052e-038
91.674225 -7.1869507 667.11835 2.3418052e-038
91.792328 -6.7249069 666.9859 2.3418052e-038
91.910431 -6.2628632 666.85352 2.3418052e-038
92.028564 -5.8008118 666.72107 2.3418052e-038
92.146698 -5.338768 666.58868 2.3418052e-038
92.264801 -4.8767242 666.45624 2.3418052e-038
92.382904 -4.4146729 666.32385 2.3418052e-038
92.501038 -3.9526291 666.19141 2.3418052e-038
92.619171 -3.4905853 666.05902 2.3418052e-038
92.737274 -3.0285339 665.92657 2.3418052e-038
92.855377 -2.5664902 665.79419 2.3418052e-038
91.119415 -2.4186859 663.15619 2.3418052e-038
91.236969 -1.9587555 663.02441 2.3418052e-038
91.354553 -1.4988174 662.89258 2.3418052e-038
91.472137 -1.0388794 662.76074 2.3418052e-038
91.589722 -0.57894897 662.62897 2.3418052e-038
91.707306 -0.11901093 662.49713 2.3418052e-038
91.82486 0.34091949 662.36536 2.3418052e-038
91.942444 0.80085754 662.23352 2.3418052e-038
92.060028 1.2607956 662.10175 2.3418052e-038
94.03656 2.0539703 664.47003 2.3418052e-038
94.154694 2.5160217 664.33759 2.3418052e-038
94.272797 2.9780655 664.2052 2.3418052e-038
94.39093 3.4401169 664.07275 2.3418052e-038
94.509033 3.9021606 663.94037 2.3418052e-038
85.410675 -54.721092 688.4165 2.3418052e-038
85.530426 -54.252594 688.28223 2.3418052e-038
85.650177 -53.784096 688.14795 2.3418052e-038
83.923431 -53.396957 685.36981 2.3418052e-038
85.88974 -52.847099 687.87946 2.3418052e-038
86.009491 -52.378601 687.74518 2.3418052e-038
86.129242 -51.910103 687.6109 2.3418052e-038
86.249023 -51.441605 687.47662 2.3418052e-038
86.368805 -50.973106 687.34235 2.3418052e-038
86.488556 -50.504608 687.20813 2.3418052e-038
86.608337 -50.03611 687.07385 2.3418052e-038
86.728088 -49.567612 686.93958 2.3418052e-038
84.996338 -49.200005 684.16705 2.3418052e-038
85.11557 -48.733673 684.03339 2.3418052e-038
85.234772 -48.267349 683.89972 2.3418052e-038
85.353973 -47.801025 683.76611 2.3418052e-038
85.473175 -47.334694 683.63245 2.3418052e-038
85.592407 -46.868366 683.49884 2.3418052e-038
85.711609 -46.402039 683.36517 2.3418052e-038
85.830841 -45.935711 683.23151 2.3418052e-038
85.950043 -45.469383 683.0979 2.3418052e-038
86.069244 -45.003056 682.96423 2.3418052e-038
86.188446 -44.536728 682.83063 2.3418052e-038
86.307678 -44.0704 682.69696 2.3418052e-038
88.285065 -43.477135 685.19415 2.3418052e-038
88.404846 -43.008636 685.05988 2.3418052e-038
86.665314 -42.671417 682.29602 2.3418052e-038
86.784515 -42.20509 682.16241 2.3418052e-038
86.903748 -41.738762 682.02875 2.3418052e-038
87.022949 -41.272434 681.89508 2.3418052e-038
87.142151 -40.806107 681.76147 2.3418052e-038
87.261383 -40.339775 681.62781 2.3418052e-038
89.243195 -39.729149 684.12006 2.3418052e-038
89.362976 -39.260647 683.98578 2.3418052e-038
89.482758 -38.792149 683.8515 2.3418052e-038
89.602509 -38.323654 683.71722 2.3418052e-038
89.72226 -37.855152 683.58295 2.3418052e-038
89.842041 -37.386654 683.44867 2.3418052e-038
89.961823 -36.918159 683.31445 2.3418052e-038
90.081573 -36.449657 683.18018 2.3418052e-038
90.201324 -35.981159 683.0459 2.3418052e-038
90.321106 -35.512665 682.91162 2.3418052e-038
90.440887 -35.044167 682.7774 2.3418052e-038
92.446838 -34.405918 685.28668 2.3418052e-038
92.567169 -33.935226 685.15173 2.3418052e-038
92.687469 -33.464539 685.01685 2.3418052e-038
92.8078 -32.993851 684.88196 2.3418052e-038
92.928131 -32.523163 684.74707 2.3418052e-038
93.048462 -32.052471 684.61218 2.3418052e-038
91.279266 -31.764675 681.83752 2.3418052e-038
91.399017 -31.296177 681.70325 2.3418052e-038
91.518768 -30.827679 681.56897 2.3418052e-038
91.63855 -30.35918 681.43475 2.3418052e-038
91.758331 -29.890682 681.30048 2.3418052e-038
91.878082 -29.422184 681.1662 2.3418052e-038
91.997833 -28.953686 681.03192 2.3418052e-038
92.117615 -28.485188 680.89764 2.3418052e-038
92.237396 -28.016689 680.76343 2.3418052e-038
92.357147 -27.548191 680.62915 2.3418052e-038
92.476929 -27.079693 680.49487 2.3418052e-038
92.59668 -26.611195 680.3606 2.3418052e-038
92.716461 -26.142696 680.22632 2.3418052e-038
92.836212 -25.674198 680.0921 2.3418052e-038
92.955994 -25.2057 679.95782 2.3418052e-038
93.075745 -24.737202 679.82355 2.3418052e-038
93.195526 -24.268703 679.68927 2.3418052e-038
93.315277 -23.800205 679.55499 2.3418052e-038
93.435059 -23.331707 679.42078 2.3418052e-038
93.55484 -22.863209 679.2865 2.3418052e-038
93.674591 -22.394711 679.15222 2.3418052e-038
93.794342 -21.926212 679.01794 2.3418052e-038
93.914124 -21.457714 678.88373 2.3418052e-038
94.033905 -20.989216 678.74945 2.3418052e-038
94.153656 -20.520718 678.61517 2.3418052e-038
94.273438 -20.052219 678.4809 2.3418052e-038
94.393188 -19.583721 678.34662 2.3418052e-038
94.51297 -19.115223 678.2124 2.3418052e-038
92.745148 -18.888702 675.48029 2.3418052e-038
92.864349 -18.422375 675.34662 2.3418052e-038
92.983551 -17.956047 675.21295 2.3418052e-038
93.102783 -17.489719 675.07935 2.3418052e-038
93.221985 -17.023392 674.94568 2.3418052e-038
93.341217 -16.557064 674.81207 2.3418052e-038
93.460419 -16.090736 674.67841 2.3418052e-038
93.57962 -15.624409 674.54474 2.3418052e-038
93.698822 -15.158081 674.41113 2.3418052e-038
93.818054 -14.691753 674.27747 2.3418052e-038
92.061615 -14.486679 671.57611 2.3418052e-038
94.056488 -13.759098 674.01019 2.3418052e-038
92.29892 -13.558327 671.31 2.3418052e-038
92.417603 -13.094147 671.177 2.3418052e-038
92.536255 -12.629971 671.04401 2.3418052e-038
90.793762 -12.435299 668.36987 2.3418052e-038
90.911865 -11.973251 668.23743 2.3418052e-038
91.029999 -11.511208 668.10504 2.3418052e-038
91.148102 -11.04916 667.9726 2.3418052e-038
91.266235 -10.587112 667.84021 2.3418052e-038
89.537506 -10.402664 665.19287 2.3418052e-038
89.65509 -9.9427261 665.06104 2.3418052e-038
89.772675 -9.4827957 664.92926 2.3418052e-038
89.890228 -9.0228577 664.79742 2.3418052e-038
90.007813 -8.5629234 664.66565 2.3418052e-038
90.125397 -8.1029892 664.53381 2.3418052e-038
90.242981 -7.6430511 664.40204 2.3418052e-038
90.360565 -7.1831169 664.2702 2.3418052e-038
90.478119 -6.7231827 664.13837 2.3418052e-038
90.595703 -6.2632446 664.00659 2.3418052e-038
90.713287 -5.8033142 663.87476 2.3418052e-038
90.830872 -5.3433762 663.74298 2.3418052e-038
90.948456 -4.8834381 663.61115 2.3418052e-038
91.06601 -4.4235077 663.47931 2.3418052e-038
91.183594 -3.9635773 663.34753 2.3418052e-038
91.301178 -3.5036392 663.2157 2.3418052e-038
91.418762 -3.0437012 663.08392 2.3418052e-038
91.536346 -2.5837708 662.95209 2.3418052e-038
91.6539 -2.1238327 662.82025 2.3418052e-038
91.771484 -1.6638947 662.68848 2.3418052e-038
91.889069 -1.2039642 662.55664 2.3418052e-038
92.006653 -0.74402618 662.42487 2.3418052e-038
92.124237 -0.28409576 662.29303 2.3418052e-038
92.241791 0.17584229 662.16125 2.3418052e-038
92.359375 0.63578033 662.02942 2.3418052e-038
92.476959 1.0957184 661.89758 2.3418052e-038
92.594543 1.5556488 661.76581 2.3418052e-038
92.712128 2.0155869 661.63397 2.3418052e-038
92.829681 2.4755173 661.5022 2.3418052e-038
92.947266 2.9354553 661.37036 2.3418052e-038
93.06485 3.3953934 661.23853 2.3418052e-038
83.869293 -55.429642 685.69745 2.3418052e-038
83.988495 -54.96331 685.56378 2.3418052e-038
84.107727 -54.496979 685.43018 2.3418052e-038
84.226929 -54.030655 685.29651 2.3418052e-038
84.346161 -53.564323 685.1629 2.3418052e-038
84.465363 -53.098 685.02924 2.3418052e-038
84.584564 -52.631668 684.89557 2.3418052e-038
84.703796 -52.165344 684.76196 2.3418052e-038
84.822998 -51.69902 684.6283 2.3418052e-038
84.94223 -51.232689 684.49469 2.3418052e-038
85.061432 -50.766357 684.36102 2.3418052e-038
85.180634 -50.300034 684.22736 2.3418052e-038
85.299835 -49.833702 684.09375 2.3418052e-038
85.419067 -49.367378 683.96008 2.3418052e-038
85.538269 -48.901047 683.82648 2.3418052e-038
85.657501 -48.434723 683.69281 2.3418052e-038
83.93869 -48.074036 680.948 2.3418052e-038
84.057343 -47.609856 680.81494 2.3418052e-038
84.175995 -47.145683 680.68195 2.3418052e-038
84.294647 -46.681503 680.54889 2.3418052e-038
84.41333 -46.217327 680.41589 2.3418052e-038
84.531982 -45.753151 680.28284 2.3418052e-038
84.650665 -45.288971 680.14984 2.3418052e-038
84.769318 -44.824795 680.01678 2.3418052e-038
84.88797 -44.360619 679.88379 2.3418052e-038
86.849609 -43.771446 682.35638 2.3418052e-038
86.968811 -43.305115 682.22272 2.3418052e-038
87.088043 -42.838791 682.08911 2.3418052e-038
87.207245 -42.372459 681.95544 2.3418052e-038
87.326447 -41.906136 681.82184 2.3418052e-038
87.445679 -41.439804 681.68817 2.3418052e-038
87.56488 -40.97348 681.5545 2.3418052e-038
87.684113 -40.507149 681.4209 2.3418052e-038
87.803314 -40.040825 681.28723 2.3418052e-038
87.922516 -39.574493 681.15363 2.3418052e-038
88.041718 -39.108166 681.01996 2.3418052e-038
90.027191 -38.491806 683.50934 2.3418052e-038
90.146973 -38.023304 683.37506 2.3418052e-038
90.266754 -37.554806 683.24078 2.3418052e-038
90.386505 -37.086311 683.10651 2.3418052e-038
90.506256 -36.617809 682.97223 2.3418052e-038
90.626038 -36.149311 682.83801 2.3418052e-038
90.745819 -35.680817 682.70374 2.3418052e-038
90.86557 -35.212318 682.56946 2.3418052e-038
92.873505 -34.574852 685.07776 2.3418052e-038
92.993835 -34.104164 684.94287 2.3418052e-038
93.114166 -33.633476 684.80798 2.3418052e-038
93.234467 -33.162788 684.6731 2.3418052e-038
93.354828 -32.692097 684.53821 2.3418052e-038
91.584167 -32.401329 681.76385 2.3418052e-038
91.703949 -31.932827 681.62964 2.3418052e-038
91.8237 -31.464329 681.49536 2.3418052e-038
91.943481 -30.995831 681.36108 2.3418052e-038
92.063263 -30.527332 681.22681 2.3418052e-038
92.183014 -30.058834 681.09253 2.3418052e-038
92.302765 -29.590336 680.95831 2.3418052e-038
92.422546 -29.121838 680.82404 2.3418052e-038
92.542328 -28.653339 680.68976 2.3418052e-038
92.662079 -28.184841 680.55548 2.3418052e-038
92.78186 -27.716343 680.4212 2.3418052e-038
92.901611 -27.247845 680.28699 2.3418052e-038
93.021393 -26.779346 680.15271 2.3418052e-038
93.141144 -26.310848 680.01843 2.3418052e-038
93.260925 -25.84235 679.88416 2.3418052e-038
93.380676 -25.373852 679.74994 2.3418052e-038
93.500458 -24.905354 679.61566 2.3418052e-038
93.620209 -24.436855 679.48138 2.3418052e-038
93.73999 -23.968357 679.34711 2.3418052e-038
93.859772 -23.499859 679.21283 2.3418052e-038
93.979523 -23.031361 679.07855 2.3418052e-038
94.099274 -22.562862 678.94434 2.3418052e-038
94.219055 -22.094364 678.81006 2.3418052e-038
94.338837 -21.625866 678.67578 2.3418052e-038
94.458588 -21.157368 678.5415 2.3418052e-038
94.578369 -20.688869 678.40729 2.3418052e-038
94.69812 -20.220371 678.27301 2.3418052e-038
94.817902 -19.751873 678.13873 2.3418052e-038
94.937653 -19.283375 678.00446 2.3418052e-038
93.167877 -19.056076 675.27332 2.3418052e-038
93.287079 -18.589748 675.13965 2.3418052e-038
93.406281 -18.123421 675.00604 2.3418052e-038
93.525482 -17.657093 674.87238 2.3418052e-038
93.644714 -17.190765 674.73877 2.3418052e-038
93.763916 -16.724438 674.6051 2.3418052e-038
93.883148 -16.25811 674.47144 2.3418052e-038
94.00235 -15.791782 674.33783 2.3418052e-038
94.121552 -15.325455 674.20416 2.3418052e-038
94.240784 -14.859123 674.07056 2.3418052e-038
92.482391 -14.653278 671.37012 2.3418052e-038
92.601044 -14.189102 671.23706 2.3418052e-038
92.719696 -13.724922 671.10406 2.3418052e-038
92.838348 -13.260746 670.97101 2.3418052e-038
92.957031 -12.79657 670.83801 2.3418052e-038
91.212616 -12.601135 668.16479 2.3418052e-038
91.330719 -12.139088 668.03241 2.3418052e-038
91.448822 -11.67704 667.89996 2.3418052e-038
91.566956 -11.214996 667.76758 2.3418052e-038
91.685089 -10.752949 667.63513 2.3418052e-038
89.954437 -10.567741 664.98877 2.3418052e-038
90.072021 -10.107803 664.85693 2.3418052e-038
90.189606 -9.6478729 664.72516 2.3418052e-038
90.307159 -9.1879349 664.59332 2.3418052e-038
90.424744 -8.7280006 664.46155 2.3418052e-038
90.542328 -8.2680664 664.32971 2.3418052e-038
90.659912 -7.8081284 664.19788 2.3418052e-038
90.777496 -7.3481941 664.0661 2.3418052e-038
90.89505 -6.8882599 663.93427 2.3418052e-038
91.012634 -6.4283295 663.80249 2.3418052e-038
91.130219 -5.9683914 663.67065 2.3418052e-038
91.247803 -5.5084534 663.53888 2.3418052e-038
91.365387 -5.0485229 663.40704 2.3418052e-038
91.482941 -4.5885849 663.27521 2.3418052e-038
91.600525 -4.1286469 663.14343 2.3418052e-038
91.718109 -3.6687164 663.0116 2.3418052e-038
91.835693 -3.2087784 662.87982 2.3418052e-038
91.953278 -2.7488403 662.74799 2.3418052e-038
92.070831 -2.2889099 662.61615 2.3418052e-038
92.188416 -1.8289795 662.48438 2.3418052e-038
92.306 -1.3690338 662.35254 2.3418052e-038
92.423584 -0.90910339 662.22076 2.3418052e-038
92.541168 -0.44917297 662.08893 2.3418052e-038
92.658722 0.010765076 661.95709 2.3418052e-038
92.776306 0.47070313 661.82532 2.3418052e-038
92.89389 0.93063354 661.69348 2.3418052e-038
93.011475 1.3905716 661.56171 2.3418052e-038
93.129059 1.8505096 661.42987 2.3418052e-038
93.246613 2.3104401 661.2981 2.3418052e-038
93.364197 2.7703781 661.16626 2.3418052e-038
93.481781 3.2303162 661.03442 2.3418052e-038
84.292023 -55.597015 685.49048 2.3418052e-038
84.411224 -55.130676 685.35687 2.3418052e-038
84.530457 -54.664352 685.22321 2.3418052e-038
84.649658 -54.198029 685.0896 2.3418052e-038
84.76889 -53.731697 684.95593 2.3418052e-038
84.888092 -53.265373 684.82227 2.3418052e-038
85.007294 -52.799042 684.68866 2.3418052e-038
85.126495 -52.332718 684.55499 2.3418052e-038
85.245728 -51.866394 684.42139 2.3418052e-038
85.364929 -51.400055 684.28772 2.3418052e-038
85.484161 -50.933731 684.15405 2.3418052e-038
85.603363 -50.467407 684.02045 2.3418052e-038
85.722565 -50.001076 683.88678 2.3418052e-038
85.841766 -49.534744 683.75317 2.3418052e-038
85.960999 -49.06842 683.61951 2.3418052e-038
86.0802 -48.602097 683.48584 2.3418052e-038
84.359467 -48.240639 680.742 2.3418052e-038
84.478119 -47.776455 680.60895 2.3418052e-038
84.596771 -47.312283 680.47595 2.3418052e-038
84.715424 -46.848106 680.34296 2.3418052e-038
84.834106 -46.383926 680.2099 2.3418052e-038
84.952759 -45.919746 680.07684 2.3418052e-038
85.071442 -45.45557 679.94385 2.3418052e-038
85.190094 -44.991394 679.81079 2.3418052e-038
85.308746 -44.527214 679.6778 2.3418052e-038
85.427399 -44.063038 679.54474 2.3418052e-038
85.546082 -43.598862 679.41174 2.3418052e-038
85.664734 -43.134682 679.27869 2.3418052e-038
85.783417 -42.670509 679.14569 2.3418052e-038
85.902069 -42.206329 679.01263 2.3418052e-038
86.020721 -41.742153 678.87964 2.3418052e-038
86.139374 -41.277977 678.74658 2.3418052e-038
86.258057 -40.813797 678.61359 2.3418052e-038
88.226044 -40.208195 681.08026 2.3418052e-038
88.345245 -39.741867 680.94666 2.3418052e-038
88.464447 -39.275536 680.81299 2.3418052e-038
90.451874 -38.659954 683.30139 2.3418052e-038
90.571655 -38.191452 683.16718 2.3418052e-038
90.930939 -36.785957 682.76434 2.3418052e-038
91.05072 -36.317459 682.63007 2.3418052e-038
91.170502 -35.848965 682.49585 2.3418052e-038
91.290253 -35.380466 682.36157 2.3418052e-038
91.410034 -34.911964 682.22729 2.3418052e-038
91.529785 -34.443466 682.09302 2.3418052e-038
91.649567 -33.974976 681.9588 2.3418052e-038
93.661163 -33.331726 684.46423 2.3418052e-038
93.781494 -32.861038 684.32935 2.3418052e-038
92.00885 -32.569477 681.55597 2.3418052e-038
92.128632 -32.100975 681.42169 2.3418052e-038
92.248383 -31.632477 681.28741 2.3418052e-038
92.368164 -31.163982 681.1532 2.3418052e-038
92.487946 -30.69548 681.01892 2.3418052e-038
92.607697 -30.226982 680.88464 2.3418052e-038
92.727448 -29.758484 680.75037 2.3418052e-038
92.847229 -29.289986 680.61615 2.3418052e-038
92.96701 -28.821487 680.48187 2.3418052e-038
93.086761 -28.352989 680.3476 2.3418052e-038
93.206543 -27.884491 680.21332 2.3418052e-038
93.326294 -27.415993 680.07904 2.3418052e-038
93.446075 -26.947495 679.94482 2.3418052e-038
93.565826 -26.478996 679.81055 2.3418052e-038
93.685608 -26.010502 679.67627 2.3418052e-038
93.805359 -25.542 679.54199 2.3418052e-038
93.92514 -25.073502 679.40771 2.3418052e-038
94.044891 -24.605003 679.2735 2.3418052e-038
94.164673 -24.136505 679.13922 2.3418052e-038
94.284454 -23.668007 679.00494 2.3418052e-038
94.404205 -23.199509 678.87067 2.3418052e-038
94.523956 -22.73101 678.73639 2.3418052e-038
94.643738 -22.262512 678.60217 2.3418052e-038
94.763519 -21.794014 678.4679 2.3418052e-038
94.88327 -21.325516 678.33362 2.3418052e-038
95.003052 -20.857018 678.19934 2.3418052e-038
95.122803 -20.388519 678.06506 2.3418052e-038
95.242584 -19.920021 677.93085 2.3418052e-038
95.362335 -19.451523 677.79657 2.3418052e-038
93.590576 -19.223446 675.06635 2.3418052e-038
93.709808 -18.757118 674.93274 2.3418052e-038
93.82901 -18.290791 674.79907 2.3418052e-038
93.948212 -17.824463 674.66547 2.3418052e-038
94.067444 -17.358135 674.5318 2.3418052e-038
94.186646 -16.891808 674.39813 2.3418052e-038
94.305847 -16.42548 674.26453 2.3418052e-038
94.425079 -15.959152 674.13086 2.3418052e-038
94.544281 -15.492825 673.99725 2.3418052e-038
94.663483 -15.026497 673.86359 2.3418052e-038
92.903168 -14.819878 671.16412 2.3418052e-038
93.02182 -14.355698 671.03107 2.3418052e-038
93.140472 -13.891525 670.89807 2.3418052e-038
93.259125 -13.427345 670.76501 2.3418052e-038
93.377808 -12.963169 670.63202 2.3418052e-038
91.631439 -12.766972 667.95978 2.3418052e-038
91.749573 -12.304924 667.82733 2.3418052e-038
91.867676 -11.84288 667.69495 2.3418052e-038
91.985809 -11.380833 667.5625 2.3418052e-038
92.103912 -10.918785 667.43011 2.3418052e-038
90.371368 -10.732819 664.78467 2.3418052e-038
90.488922 -10.272881 664.65283 2.3418052e-038
90.606506 -9.8129501 664.52106 2.3418052e-038
90.724091 -9.3530121 664.38922 2.3418052e-038
90.841675 -8.8930779 664.25745 2.3418052e-038
90.959259 -8.4331436 664.12561 2.3418052e-038
91.076813 -7.9732056 663.99377 2.3418052e-038
91.194397 -7.5132713 663.862 2.3418052e-038
91.311981 -7.0533371 663.73016 2.3418052e-038
91.429565 -6.593399 663.59839 2.3418052e-038
91.54715 -6.1334686 663.46655 2.3418052e-038
91.664703 -5.6735306 663.33472 2.3418052e-038
91.782288 -5.2135925 663.20294 2.3418052e-038
91.899872 -4.7536621 663.07111 2.3418052e-038
92.017456 -4.2937317 662.93933 2.3418052e-038
92.13504 -3.8337936 662.8075 2.3418052e-038
92.252594 -3.3738556 662.67572 2.3418052e-038
92.370178 -2.9139252 662.54388 2.3418052e-038
92.487762 -2.4539871 662.41205 2.3418052e-038
92.605347 -1.9940491 662.28027 2.3418052e-038
92.722931 -1.5341187 662.14844 2.3418052e-038
92.840485 -1.0741806 662.01666 2.3418052e-038
92.958069 -0.61425018 661.88483 2.3418052e-038
93.075653 -0.15431213 661.75299 2.3418052e-038
93.193237 0.30562592 661.62122 2.3418052e-038
93.310822 0.76556396 661.48938 2.3418052e-038
93.428375 1.2254944 661.3576 2.3418052e-038
93.545959 1.6854324 661.22577 2.3418052e-038
93.663544 2.1453629 661.09393 2.3418052e-038
93.781128 2.6053009 660.96216 2.3418052e-038
93.898712 3.065239 660.83032 2.3418052e-038
84.714752 -55.764389 685.28357 2.3418052e-038
84.833954 -55.29805 685.1499 2.3418052e-038
84.953186 -54.831726 685.0163 2.3418052e-038
85.072388 -54.365402 684.88263 2.3418052e-038
85.19162 -53.899071 684.74896 2.3418052e-038
85.310822 -53.432747 684.61536 2.3418052e-038
85.430023 -52.966415 684.48169 2.3418052e-038
85.549225 -52.500092 684.34808 2.3418052e-038
85.668457 -52.033768 684.21442 2.3418052e-038
85.787659 -51.567429 684.08075 2.3418052e-038
85.906891 -51.101105 683.94714 2.3418052e-038
86.026093 -50.634781 683.81348 2.3418052e-038
86.145294 -50.168449 683.67987 2.3418052e-038
84.424225 -49.799767 680.93512 2.3418052e-038
84.542877 -49.335594 680.80206 2.3418052e-038
84.66156 -48.871407 680.66907 2.3418052e-038
84.780212 -48.407234 680.53601 2.3418052e-038
84.898895 -47.943054 680.40302 2.3418052e-038
85.017548 -47.478882 680.26996 2.3418052e-038
85.1362 -47.014702 680.13696 2.3418052e-038
85.254852 -46.550526 680.00391 2.3418052e-038
85.373535 -46.086349 679.87091 2.3418052e-038
85.492188 -45.622169 679.73785 2.3418052e-038
85.61087 -45.157993 679.60486 2.3418052e-038
85.729523 -44.693817 679.4718 2.3418052e-038
85.848175 -44.229637 679.33881 2.3418052e-038
85.966827 -43.765461 679.20575 2.3418052e-038
86.08551 -43.301285 679.07269 2.3418052e-038
86.204163 -42.837105 678.9397 2.3418052e-038
86.322845 -42.372929 678.8067 2.3418052e-038
86.441498 -41.908752 678.67365 2.3418052e-038
86.56015 -41.444572 678.54059 2.3418052e-038
86.678802 -40.9804 678.40759 2.3418052e-038
88.648773 -40.375568 680.87335 2.3418052e-038
88.767975 -39.909241 680.73969 2.3418052e-038
88.887177 -39.442909 680.60608 2.3418052e-038
89.006378 -38.976585 680.47241 2.3418052e-038
90.996368 -38.359604 682.95923 2.3418052e-038
89.244812 -38.04393 680.20514 2.3418052e-038
89.364044 -37.577599 680.07147 2.3418052e-038
89.483246 -37.111275 679.93787 2.3418052e-038
89.602448 -36.644947 679.8042 2.3418052e-038
91.595184 -36.017117 682.2879 2.3418052e-038
91.714966 -35.548618 682.15363 2.3418052e-038
91.834717 -35.080116 682.01941 2.3418052e-038
91.954498 -34.611618 681.88513 2.3418052e-038
92.074249 -34.143127 681.75085 2.3418052e-038
92.194031 -33.674622 681.61658 2.3418052e-038
92.313782 -33.206123 681.48236 2.3418052e-038
92.433563 -32.737629 681.34808 2.3418052e-038
92.553314 -32.269127 681.21381 2.3418052e-038
92.673096 -31.800629 681.07953 2.3418052e-038
92.792877 -31.332134 680.94525 2.3418052e-038
92.912628 -30.863632 680.81104 2.3418052e-038
93.032379 -30.395134 680.67676 2.3418052e-038
93.152161 -29.926636 680.54248 2.3418052e-038
93.271942 -29.458138 680.4082 2.3418052e-038
93.391693 -28.989639 680.27393 2.3418052e-038
93.511475 -28.521141 680.13971 2.3418052e-038
93.631226 -28.052643 680.00543 2.3418052e-038
93.751007 -27.584145 679.87115 2.3418052e-038
93.870758 -27.115646 679.73688 2.3418052e-038
92.105927 -26.852066 676.99774 2.3418052e-038
92.225128 -26.385735 676.86407 2.3418052e-038
92.34433 -25.919411 676.73041 2.3418052e-038
92.463562 -25.453079 676.5968 2.3418052e-038
92.582764 -24.986755 676.46313 2.3418052e-038
92.701996 -24.520424 676.32953 2.3418052e-038
92.821198 -24.054096 676.19586 2.3418052e-038
92.940399 -23.587769 676.06219 2.3418052e-038
93.059601 -23.121441 675.92859 2.3418052e-038
93.178833 -22.655113 675.79492 2.3418052e-038
93.298035 -22.188786 675.66132 2.3418052e-038
93.417267 -21.722458 675.52765 2.3418052e-038
93.536469 -21.25613 675.39398 2.3418052e-038
93.65567 -20.789803 675.26038 2.3418052e-038
93.774872 -20.323475 675.12671 2.3418052e-038
93.894104 -19.857147 674.9931 2.3418052e-038
94.013306 -19.39082 674.85944 2.3418052e-038
94.132538 -18.924492 674.72577 2.3418052e-038
94.25174 -18.458164 674.59216 2.3418052e-038
94.370941 -17.991837 674.4585 2.3418052e-038
94.490173 -17.525509 674.32489 2.3418052e-038
94.609375 -17.059181 674.19122 2.3418052e-038
94.728577 -16.592854 674.05756 2.3418052e-038
94.847809 -16.126526 673.92395 2.3418052e-038
93.086578 -15.914829 671.22418 2.3418052e-038
93.205261 -15.450653 671.09113 2.3418052e-038
93.323914 -14.986477 670.95813 2.3418052e-038
93.442596 -14.522301 670.82507 2.3418052e-038
93.561249 -14.058121 670.69208 2.3418052e-038
93.679901 -13.593945 670.55902 2.3418052e-038
93.798553 -13.129768 670.42603 2.3418052e-038
92.050293 -12.932808 667.7547 2.3418052e-038
92.168396 -12.47076 667.62231 2.3418052e-038
92.28653 -12.008713 667.48987 2.3418052e-038
92.404633 -11.546669 667.35748 2.3418052e-038
92.522766 -11.084621 667.22504 2.3418052e-038
92.640869 -10.622574 667.09265 2.3418052e-038
90.905853 -10.437958 664.44873 2.3418052e-038
91.023438 -9.9780273 664.31696 2.3418052e-038
91.141022 -9.5180893 664.18512 2.3418052e-038
91.258575 -9.0581551 664.05328 2.3418052e-038
91.37616 -8.5982208 663.92151 2.3418052e-038
91.493744 -8.1382828 663.78967 2.3418052e-038
91.611328 -7.6783485 663.6579 2.3418052e-038
91.728912 -7.2184143 663.52606 2.3418052e-038
91.846466 -6.7584839 663.39429 2.3418052e-038
91.96405 -6.2985458 663.26245 2.3418052e-038
92.081635 -5.8386078 663.13062 2.3418052e-038
92.199219 -5.3786774 662.99884 2.3418052e-038
92.316803 -4.9187393 662.867 2.3418052e-038
92.434357 -4.4588013 662.73523 2.3418052e-038
92.551941 -3.9988708 662.60339 2.3418052e-038
92.669525 -3.5389328 662.47156 2.3418052e-038
92.787109 -3.0789948 662.33978 2.3418052e-038
92.904694 -2.6190643 662.20795 2.3418052e-038
93.022247 -2.1591339 662.07617 2.3418052e-038
93.139832 -1.6991882 661.94434 2.3418052e-038
93.257416 -1.2392578 661.81256 2.3418052e-038
93.375 -0.77932739 661.68073 2.3418052e-038
93.492584 -0.31938934 661.54889 2.3418052e-038
93.610138 0.14054871 661.41711 2.3418052e-038
93.727722 0.60047913 661.28528 2.3418052e-038
93.845306 1.0604172 661.1535 2.3418052e-038
93.962891 1.5203552 661.02167 2.3418052e-038
94.080475 1.9802856 660.88983 2.3418052e-038
94.198029 2.4402237 660.75806 2.3418052e-038
94.315613 2.9001617 660.62622 2.3418052e-038
85.137482 -55.931763 685.0766 2.3418052e-038
85.256683 -55.465424 684.94299 2.3418052e-038
85.375885 -54.9991 684.80933 2.3418052e-038
85.495117 -54.532776 684.67566 2.3418052e-038
85.614319 -54.066444 684.54205 2.3418052e-038
85.733551 -53.600121 684.40839 2.3418052e-038
85.852753 -53.133789 684.27478 2.3418052e-038
85.971954 -52.667465 684.14111 2.3418052e-038
86.091156 -52.201141 684.00745 2.3418052e-038
86.210388 -51.734802 683.87384 2.3418052e-038
86.32959 -51.268478 683.74017 2.3418052e-038
86.448822 -50.802155 683.60657 2.3418052e-038
86.568024 -50.335823 683.4729 2.3418052e-038
84.845001 -49.966362 680.72913 2.3418052e-038
84.963654 -49.50219 680.59607 2.3418052e-038
85.082336 -49.038017 680.46307 2.3418052e-038
85.200989 -48.573837 680.33002 2.3418052e-038
85.319672 -48.109657 680.19702 2.3418052e-038
85.438324 -47.645485 680.06396 2.3418052e-038
85.556976 -47.181305 679.93097 2.3418052e-038
85.675629 -46.717129 679.79791 2.3418052e-038
85.794312 -46.252953 679.66492 2.3418052e-038
85.912964 -45.788773 679.53186 2.3418052e-038
86.031647 -45.324596 679.39886 2.3418052e-038
86.150299 -44.86042 679.26581 2.3418052e-038
86.268951 -44.39624 679.13281 2.3418052e-038
86.387604 -43.932064 678.99976 2.3418052e-038
86.506287 -43.467888 678.86676 2.3418052e-038
86.624939 -43.003708 678.7337 2.3418052e-038
86.743622 -42.539532 678.60071 2.3418052e-038
86.862274 -42.075356 678.46765 2.3418052e-038
86.980927 -41.611176 678.33466 2.3418052e-038
87.099579 -41.147003 678.2016 2.3418052e-038
87.218262 -40.682823 678.0686 2.3418052e-038
87.336914 -40.218647 677.93555 2.3418052e-038
87.455597 -39.754471 677.80255 2.3418052e-038
89.429108 -39.143959 680.2655 2.3418052e-038
89.54834 -38.677631 680.13184 2.3418052e-038
89.667542 -38.211304 679.99817 2.3418052e-038
89.786774 -37.744972 679.86456 2.3418052e-038
89.905975 -37.278648 679.7309 2.3418052e-038
90.025177 -36.812321 679.59729 2.3418052e-038
92.019867 -36.185268 682.08002 2.3418052e-038
92.139648 -35.71677 681.94574 2.3418052e-038
92.259399 -35.248268 681.81146 2.3418052e-038
92.379181 -34.77977 681.67725 2.3418052e-038
92.498932 -34.311279 681.54297 2.3418052e-038
92.618713 -33.842773 681.40869 2.3418052e-038
92.738464 -33.374275 681.27441 2.3418052e-038
92.858246 -32.905781 681.14014 2.3418052e-038
92.977997 -32.437279 681.00592 2.3418052e-038
93.097778 -31.968781 680.87164 2.3418052e-038
93.21756 -31.500286 680.73737 2.3418052e-038
93.337311 -31.031784 680.60309 2.3418052e-038
93.457062 -30.563286 680.46881 2.3418052e-038
93.576843 -30.094788 680.33459 2.3418052e-038
93.696625 -29.626289 680.20032 2.3418052e-038
93.816376 -29.157791 680.06604 2.3418052e-038
93.936157 -28.689293 679.93176 2.3418052e-038
94.055908 -28.220795 679.79755 2.3418052e-038
94.17569 -27.752296 679.66327 2.3418052e-038
94.295441 -27.283798 679.52899 2.3418052e-038
92.528656 -27.01944 676.79077 2.3418052e-038
92.647858 -26.553108 676.6571 2.3418052e-038
92.767059 -26.086784 676.5235 2.3418052e-038
92.886261 -25.620453 676.38983 2.3418052e-038
93.005493 -25.154129 676.25623 2.3418052e-038
93.124695 -24.687798 676.12256 2.3418052e-038
93.243927 -24.22147 675.98889 2.3418052e-038
93.363129 -23.755142 675.85529 2.3418052e-038
93.48233 -23.288815 675.72162 2.3418052e-038
93.601532 -22.822487 675.58801 2.3418052e-038
93.720764 -22.356159 675.45435 2.3418052e-038
93.839966 -21.889832 675.32068 2.3418052e-038
93.959198 -21.423504 675.18707 2.3418052e-038
94.0784 -20.957176 675.05341 2.3418052e-038
94.197601 -20.490849 674.91974 2.3418052e-038
94.316833 -20.024521 674.78613 2.3418052e-038
94.436035 -19.558193 674.65247 2.3418052e-038
94.555237 -19.091866 674.51886 2.3418052e-038
94.674469 -18.625538 674.38519 2.3418052e-038
94.793671 -18.15921 674.25153 2.3418052e-038
94.912872 -17.692883 674.11792 2.3418052e-038
95.032104 -17.226555 673.98425 2.3418052e-038
93.27005 -17.009789 671.28424 2.3418052e-038
93.388702 -16.545612 671.15118 2.3418052e-038
93.507355 -16.081432 671.01819 2.3418052e-038
93.626038 -15.617256 670.88513 2.3418052e-038
93.74469 -15.15308 670.75214 2.3418052e-038
93.863373 -14.688904 670.61908 2.3418052e-038
93.982025 -14.224724 670.48608 2.3418052e-038
94.100677 -13.760548 670.35303 2.3418052e-038
92.351013 -13.560684 667.68207 2.3418052e-038
92.469116 -13.09864 667.54968 2.3418052e-038
92.58725 -12.636593 667.4173 2.3418052e-038
92.705353 -12.174545 667.28485 2.3418052e-038
92.823486 -11.712502 667.1524 2.3418052e-038
92.941589 -11.250454 667.02002 2.3418052e-038
91.205231 -11.062973 664.37646 2.3418052e-038
91.322784 -10.603039 664.24463 2.3418052e-038
91.440369 -10.143105 664.11285 2.3418052e-038
91.557953 -9.6831665 663.98102 2.3418052e-038
91.675537 -9.2232361 663.84918 2.3418052e-038
91.793121 -8.763298 663.71741 2.3418052e-038
91.910675 -8.3033638 663.58557 2.3418052e-038
92.028259 -7.8434296 663.4538 2.3418052e-038
92.145844 -7.3834953 663.32196 2.3418052e-038
92.263428 -6.9235611 663.19012 2.3418052e-038
92.381012 -6.463623 663.05835 2.3418052e-038
92.498566 -6.0036926 662.92651 2.3418052e-038
92.61615 -5.5437546 662.79474 2.3418052e-038
92.733734 -5.0838165 662.6629 2.3418052e-038
92.851318 -4.6238861 662.53107 2.3418052e-038
92.968903 -4.1639481 662.39929 2.3418052e-038
93.086456 -3.70401 662.26746 2.3418052e-038
93.204041 -3.2440796 662.13568 2.3418052e-038
93.321625 -2.7841415 662.00385 2.3418052e-038
93.439209 -2.3242035 661.87207 2.3418052e-038
93.556793 -1.8642731 661.74023 2.3418052e-038
93.674347 -1.4043427 661.6084 2.3418052e-038
93.791931 -0.9444046 661.47662 2.3418052e-038
93.909515 -0.48446655 661.34479 2.3418052e-038
94.0271 -0.024536133 661.21301 2.3418052e-038
94.144684 0.43540192 661.08118 2.3418052e-038
94.262238 0.89533997 660.9494 2.3418052e-038
94.379822 1.3552704 660.81757 2.3418052e-038
94.497406 1.8152084 660.68573 2.3418052e-038
94.61499 2.2751465 660.55396 2.3418052e-038
94.732574 2.7350769 660.42212 2.3418052e-038
85.560181 -56.099129 684.86969 2.3418052e-038
85.679413 -55.632797 684.73602 2.3418052e-038
85.798615 -55.166473 684.60236 2.3418052e-038
85.917816 -54.700142 684.46875 2.3418052e-038
86.037048 -54.23381 684.33508 2.3418052e-038
86.15625 -53.767487 684.20148 2.3418052e-038
86.275482 -53.301163 684.06781 2.3418052e-038
86.394684 -52.834831 683.93414 2.3418052e-038
86.513885 -52.368507 683.80054 2.3418052e-038
86.633087 -51.902176 683.66687 2.3418052e-038
86.752319 -51.435852 683.53326 2.3418052e-038
86.871521 -50.969528 683.3996 2.3418052e-038
86.990753 -50.503189 683.26593 2.3418052e-038
85.265778 -50.132965 680.52313 2.3418052e-038
85.38443 -49.668793 680.39008 2.3418052e-038
85.503113 -49.204613 680.25708 2.3418052e-038
85.621765 -48.74044 680.12402 2.3418052e-038
85.740448 -48.276253 679.99103 2.3418052e-038
85.8591 -47.812084 679.85797 2.3418052e-038
85.977753 -47.347908 679.72498 2.3418052e-038
86.096405 -46.883728 679.59192 2.3418052e-038
86.215088 -46.419548 679.45892 2.3418052e-038
86.33374 -45.955372 679.32587 2.3418052e-038
86.452423 -45.491196 679.19287 2.3418052e-038
86.571075 -45.027016 679.05981 2.3418052e-038
86.689728 -44.56284 678.92682 2.3418052e-038
86.80838 -44.098663 678.79376 2.3418052e-038
86.927063 -43.634483 678.66077 2.3418052e-038
87.045715 -43.170311 678.52771 2.3418052e-038
87.164398 -42.706131 678.39471 2.3418052e-038
87.283051 -42.241955 678.26166 2.3418052e-038
87.401703 -41.777779 678.12866 2.3418052e-038
87.520355 -41.313599 677.99561 2.3418052e-038
87.639038 -40.849422 677.86261 2.3418052e-038
87.75769 -40.385246 677.72955 2.3418052e-038
87.876373 -39.921066 677.59656 2.3418052e-038
89.851837 -39.311329 680.05853 2.3418052e-038
89.971039 -38.845001 679.92487 2.3418052e-038
90.09024 -38.37867 679.79126 2.3418052e-038
90.209473 -37.912346 679.65759 2.3418052e-038
90.328674 -37.446018 679.52399 2.3418052e-038
90.447906 -36.979691 679.39032 2.3418052e-038
92.44455 -36.35342 681.87213 2.3418052e-038
92.564331 -35.884922 681.73785 2.3418052e-038
92.684113 -35.41642 681.60358 2.3418052e-038
92.803864 -34.947922 681.4693 2.3418052e-038
92.923615 -34.479431 681.33502 2.3418052e-038
93.043396 -34.010925 681.20081 2.3418052e-038
93.163177 -33.542427 681.06653 2.3418052e-038
93.282928 -33.073933 680.93225 2.3418052e-038
93.40271 -32.605431 680.79797 2.3418052e-038
93.522461 -32.136932 680.6637 2.3418052e-038
93.642242 -31.668438 680.52948 2.3418052e-038
91.878448 -31.383759 677.78662 2.3418052e-038
91.99765 -30.917431 677.65295 2.3418052e-038
92.116852 -30.451103 677.51935 2.3418052e-038
92.236084 -29.984772 677.38568 2.3418052e-038
94.241058 -29.325943 679.85815 2.3418052e-038
94.36084 -28.857445 679.72388 2.3418052e-038
94.480621 -28.388947 679.5896 2.3418052e-038
94.600372 -27.920448 679.45532 2.3418052e-038
94.720123 -27.45195 679.32111 2.3418052e-038
92.951355 -27.186806 676.5838 2.3418052e-038
93.070557 -26.720482 676.4502 2.3418052e-038
93.189789 -26.25415 676.31653 2.3418052e-038
93.30899 -25.787827 676.18292 2.3418052e-038
93.428192 -25.321495 676.04926 2.3418052e-038
93.547424 -24.855171 675.91559 2.3418052e-038
93.666626 -24.38884 675.78198 2.3418052e-038
93.785828 -23.922516 675.64832 2.3418052e-038
93.90506 -23.456184 675.51471 2.3418052e-038
94.024261 -22.989857 675.38104 2.3418052e-038
94.143463 -22.523529 675.24738 2.3418052e-038
94.262695 -22.057201 675.11377 2.3418052e-038
94.381897 -21.590874 674.9801 2.3418052e-038
94.501129 -21.124546 674.8465 2.3418052e-038
94.620331 -20.658218 674.71283 2.3418052e-038
94.739532 -20.191891 674.57916 2.3418052e-038
94.858734 -19.725563 674.44556 2.3418052e-038
93.097504 -19.497272 671.74335 2.3418052e-038
93.216156 -19.033096 671.61035 2.3418052e-038
93.334839 -18.56892 671.47729 2.3418052e-038
93.453491 -18.10474 671.3443 2.3418052e-038
95.454803 -17.393925 673.77734 2.3418052e-038
93.690826 -17.176388 671.07825 2.3418052e-038
93.809479 -16.712212 670.94519 2.3418052e-038
92.061127 -16.498802 668.27155 2.3418052e-038
92.17926 -16.036755 668.13916 2.3418052e-038
92.297394 -15.574707 668.00671 2.3418052e-038
92.415497 -15.112663 667.87433 2.3418052e-038
94.402802 -14.391327 670.28009 2.3418052e-038
92.651733 -14.188568 667.6095 2.3418052e-038
92.769867 -13.726524 667.47705 2.3418052e-038
92.88797 -13.264477 667.34467 2.3418052e-038
93.006073 -12.802429 667.21222 2.3418052e-038
93.124207 -12.340385 667.07983 2.3418052e-038
93.24234 -11.878338 666.94739 2.3418052e-038
93.360443 -11.41629 666.815 2.3418052e-038
91.622162 -11.22805 664.17236 2.3418052e-038
91.739716 -10.768116 664.04053 2.3418052e-038
91.8573 -10.308182 663.90875 2.3418052e-038
91.974884 -9.8482437 663.77692 2.3418052e-038
92.092438 -9.3883133 663.64508 2.3418052e-038
92.210022 -8.9283752 663.51331 2.3418052e-038
92.327606 -8.468441 663.38147 2.3418052e-038
92.44519 -8.0085068 663.24969 2.3418052e-038
92.562775 -7.5485725 663.11786 2.3418052e-038
92.680328 -7.0886383 662.98602 2.3418052e-038
92.797913 -6.6287003 662.85425 2.3418052e-038
92.915497 -6.1687622 662.72241 2.3418052e-038
93.033081 -5.7088318 662.59064 2.3418052e-038
93.150665 -5.2488937 662.4588 2.3418052e-038
93.268219 -4.7889557 662.32697 2.3418052e-038
93.385803 -4.3290253 662.19519 2.3418052e-038
93.503387 -3.8690948 662.06335 2.3418052e-038
93.620972 -3.4091568 661.93158 2.3418052e-038
93.738556 -2.9492188 661.79974 2.3418052e-038
93.85611 -2.4892883 661.66791 2.3418052e-038
93.973694 -2.0293503 661.53613 2.3418052e-038
94.091278 -1.5694122 661.4043 2.3418052e-038
94.208862 -1.1094818 661.27252 2.3418052e-038
94.326447 -0.64954376 661.14069 2.3418052e-038
94.444 -0.18960571 661.00891 2.3418052e-038
94.561584 0.27032471 660.87708 2.3418052e-038
94.679169 0.73026276 660.74524 2.3418052e-038
94.796753 1.1902008 660.61346 2.3418052e-038
94.914337 1.6501312 660.48163 2.3418052e-038
95.031891 2.1100616 660.34985 2.3418052e-038
95.149475 2.5700073 660.21802 2.3418052e-038
84.025269 -56.798042 682.1795 2.3418052e-038
84.143951 -56.33387 682.04645 2.3418052e-038
86.221344 -55.333839 684.39545 2.3418052e-038
86.340546 -54.867508 684.26178 2.3418052e-038
86.459747 -54.401184 684.12817 2.3418052e-038
86.698181 -53.468529 683.8609 2.3418052e-038
86.817413 -53.002197 683.72723 2.3418052e-038
86.936615 -52.535873 683.59357 2.3418052e-038
87.055817 -52.06955 683.45996 2.3418052e-038
85.330566 -51.692101 680.71619 2.3418052e-038
85.449219 -51.227921 680.58319 2.3418052e-038
87.413452 -50.670563 683.05902 2.3418052e-038
85.686554 -50.299568 680.31714 2.3418052e-038
85.805206 -49.835396 680.18408 2.3418052e-038
85.923859 -49.371208 680.05109 2.3418052e-038
86.042542 -48.907036 679.91803 2.3418052e-038
86.161194 -48.442856 679.78503 2.3418052e-038
86.279877 -47.978683 679.65198 2.3418052e-038
86.398529 -47.514503 679.51898 2.3418052e-038
86.517181 -47.050327 679.38593 2.3418052e-038
86.635834 -46.586151 679.25293 2.3418052e-038
86.754517 -46.121971 679.11987 2.3418052e-038
86.873169 -45.657795 678.98688 2.3418052e-038
86.991852 -45.193619 678.85382 2.3418052e-038
87.110504 -44.729439 678.72083 2.3418052e-038
87.229156 -44.265263 678.58777 2.3418052e-038
87.347809 -43.801086 678.45477 2.3418052e-038
87.466492 -43.336906 678.32172 2.3418052e-038
87.585144 -42.87273 678.18872 2.3418052e-038
87.703827 -42.408554 678.05566 2.3418052e-038
87.822479 -41.944374 677.92267 2.3418052e-038
87.941132 -41.480202 677.78961 2.3418052e-038
88.059784 -41.016022 677.65662 2.3418052e-038
88.178467 -40.551846 677.52356 2.3418052e-038
88.297119 -40.087669 677.39056 2.3418052e-038
90.274567 -39.478699 679.85162 2.3418052e-038
90.393768 -39.012371 679.71796 2.3418052e-038
90.51297 -38.546043 679.58429 2.3418052e-038
90.632202 -38.079712 679.45068 2.3418052e-038
90.751404 -37.613388 679.31702 2.3418052e-038
90.870605 -37.14706 679.18335 2.3418052e-038
92.869263 -36.521572 681.66418 2.3418052e-038
92.989044 -36.053074 681.52991 2.3418052e-038
93.108795 -35.584572 681.39569 2.3418052e-038
93.228546 -35.116074 681.26141 2.3418052e-038
93.348328 -34.647583 681.12714 2.3418052e-038
93.468109 -34.179077 680.99286 2.3418052e-038
93.58786 -33.710579 680.85858 2.3418052e-038
93.707611 -33.242085 680.72437 2.3418052e-038
93.827393 -32.773582 680.59009 2.3418052e-038
92.062744 -32.483784 677.84692 2.3418052e-038
92.181946 -32.017456 677.71332 2.3418052e-038
