# .PCD v0.7 - Point Cloud Data file format
VERSION 0.7
FIELDS x y z rgb
SIZE 4 4 4 4
TYPE F F F F
COUNT 1 1 1 1
WIDTH 1040
HEIGHT 1
VIEWPOINT 0 0 0 1 0 0 0
POINTS 1040
DATA ascii
100.10229 16.319321 679.06738 2.3418052e-038
100.10229 16.814268 679.06738 2.3418052e-038
100.10229 17.309216 679.06738 2.3418052e-038
100.10229 17.804161 679.06738 2.3418052e-038
100.10229 18.299109 679.06738 2.3418052e-038
100.10229 18.794056 679.06738 2.3418052e-038
100.10229 19.289003 679.06738 2.3418052e-038
100.10229 19.783951 679.06738 2.3418052e-038
100.10229 20.278898 679.06738 2.3418052e-038
100.10229 20.773844 679.06738 2.3418052e-038
102.00195 -42.672089 688.54968 2.3418052e-038
102.00195 -42.170231 688.54968 2.3418052e-038
102.00195 -41.668373 688.54968 2.3418052e-038
102.00195 -41.166512 688.54968 2.3418052e-038
102.00195 -40.664654 688.54968 2.3418052e-038
102.00195 -40.162796 688.54968 2.3418052e-038
102.00195 -39.660938 688.54968 2.3418052e-038
102.00195 -39.159081 688.54968 2.3418052e-038
102.00195 -38.657223 688.54968 2.3418052e-038
102.00195 -38.155365 688.54968 2.3418052e-038
102.00195 -37.653503 688.54968 2.3418052e-038
102.00195 -37.151646 688.54968 2.3418052e-038
102.00195 -36.649788 688.54968 2.3418052e-038
102.00195 -36.14793 688.54968 2.3418052e-038
102.00195 -35.646072 688.54968 2.3418052e-038
102.00195 -35.144215 688.54968 2.3418052e-038
102.47894 -34.804352 691.76959 2.3418052e-038
102.47894 -34.300148 691.76959 2.3418052e-038
102.47894 -33.795944 691.76959 2.3418052e-038
102.47894 -33.291737 691.76959 2.3418052e-038
102.47894 -32.787533 691.76959 2.3418052e-038
102.00195 -32.133064 688.54968 2.3418052e-038
102.47894 -31.779119 691.76959 2.3418052e-038
102.00195 -31.129349 688.54968 2.3418052e-038
102.00195 -30.627487 688.54968 2.3418052e-038
102.00195 -30.125629 688.54968 2.3418052e-038
102.00195 -29.623772 688.54968 2.3418052e-038
102.00195 -29.121912 688.54968 2.3418052e-038
102.00195 -28.620054 688.54968 2.3418052e-038
102.47894 -28.249683 691.76959 2.3418052e-038
102.47894 -27.745481 691.76959 2.3418052e-038
102.47894 -27.241276 691.76959 2.3418052e-038
102.47894 -26.73707 691.76959 2.3418052e-038
102.00195 -26.110762 688.54968 2.3418052e-038
102.00195 -25.608904 688.54968 2.3418052e-038
102.00195 -25.107046 688.54968 2.3418052e-038
102.00195 -24.605186 688.54968 2.3418052e-038
102.47894 -24.216043 691.76959 2.3418052e-038
102.47894 -23.71184 691.76959 2.3418052e-038
102.47894 -23.207634 691.76959 2.3418052e-038
102.47894 -22.703428 691.76959 2.3418052e-038
102.47894 -22.199224 691.76959 2.3418052e-038
102.00195 -21.594038 688.54968 2.3418052e-038
102.00195 -21.092178 688.54968 2.3418052e-038
101.52937 -20.494925 685.35962 2.3418052e-038
101.52937 -19.995392 685.35962 2.3418052e-038
101.52937 -19.495859 685.35962 2.3418052e-038
101.52937 -18.996326 685.35962 2.3418052e-038
101.52937 -18.496792 685.35962 2.3418052e-038
101.52937 -17.997259 685.35962 2.3418052e-038
101.52937 -17.497726 685.35962 2.3418052e-038
101.52937 -16.998192 685.35962 2.3418052e-038
101.52937 -16.498659 685.35962 2.3418052e-038
101.52937 -15.999126 685.35962 2.3418052e-038
101.52937 -15.499593 685.35962 2.3418052e-038
101.52937 -15.000059 685.35962 2.3418052e-038
101.52937 -14.500526 685.35962 2.3418052e-038
101.52937 -14.000993 685.35962 2.3418052e-038
101.52937 -13.50146 685.35962 2.3418052e-038
101.52937 -13.001926 685.35962 2.3418052e-038
101.52937 -12.502394 685.35962 2.3418052e-038
101.06116 -11.947507 682.19897 2.3418052e-038
101.06116 -11.450277 682.19897 2.3418052e-038
101.06116 -10.953048 682.19897 2.3418052e-038
101.06116 -10.455818 682.19897 2.3418052e-038
101.06116 -9.9585886 682.19897 2.3418052e-038
101.06116 -9.461359 682.19897 2.3418052e-038
101.06116 -8.9641294 682.19897 2.3418052e-038
101.06116 -8.4668999 682.19897 2.3418052e-038
100.59724 -7.9330859 679.06738 2.3418052e-038
100.59724 -7.438139 679.06738 2.3418052e-038
100.59724 -6.943192 679.06738 2.3418052e-038
100.59724 -6.448245 679.06738 2.3418052e-038
100.59724 -5.9532976 679.06738 2.3418052e-038
100.59724 -5.4583507 679.06738 2.3418052e-038
100.59724 -4.9634037 679.06738 2.3418052e-038
100.59724 -4.4684567 679.06738 2.3418052e-038
100.59724 -3.9735096 679.06738 2.3418052e-038
100.59724 -3.4785624 679.06738 2.3418052e-038
100.59724 -2.9836154 679.06738 2.3418052e-038
100.59724 -2.4886682 679.06738 2.3418052e-038
100.59724 -1.9937211 679.06738 2.3418052e-038
100.59724 -1.4987741 679.06738 2.3418052e-038
100.59724 -1.003827 679.06738 2.3418052e-038
100.59724 -0.5088799 679.06738 2.3418052e-038
100.59724 -0.013932827 679.06738 2.3418052e-038
100.59724 0.48101425 679.06738 2.3418052e-038
100.59724 0.97596133 679.06738 2.3418052e-038
100.59724 1.4709084 679.06738 2.3418052e-038
100.59724 1.9658556 679.06738 2.3418052e-038
100.59724 2.4608026 679.06738 2.3418052e-038
100.59724 2.9557498 679.06738 2.3418052e-038
100.59724 3.4506967 679.06738 2.3418052e-038
100.59724 3.9456439 679.06738 2.3418052e-038
100.59724 4.4405909 679.06738 2.3418052e-038
100.59724 4.9355378 679.06738 2.3418052e-038
100.59724 5.4304852 679.06738 2.3418052e-038
100.59724 5.9254322 679.06738 2.3418052e-038
100.59724 6.4203792 679.06738 2.3418052e-038
100.59724 6.9153261 679.06738 2.3418052e-038
100.59724 7.4102736 679.06738 2.3418052e-038
100.59724 7.9052205 679.06738 2.3418052e-038
100.59724 8.4001675 679.06738 2.3418052e-038
100.59724 8.8951149 679.06738 2.3418052e-038
100.59724 9.3900614 679.06738 2.3418052e-038
100.59724 9.8850088 679.06738 2.3418052e-038
100.59724 10.379956 679.06738 2.3418052e-038
100.13756 10.825211 675.96442 2.3418052e-038
100.59724 11.36985 679.06738 2.3418052e-038
100.59724 11.864797 679.06738 2.3418052e-038
100.59724 12.359744 679.06738 2.3418052e-038
100.59724 12.854692 679.06738 2.3418052e-038
100.59724 13.349638 679.06738 2.3418052e-038
100.59724 13.844585 679.06738 2.3418052e-038
100.59724 14.339533 679.06738 2.3418052e-038
100.59724 14.834479 679.06738 2.3418052e-038
100.59724 15.329427 679.06738 2.3418052e-038
100.59724 15.824373 679.06738 2.3418052e-038
100.59724 16.319321 679.06738 2.3418052e-038
100.59724 16.814268 679.06738 2.3418052e-038
100.59724 17.309216 679.06738 2.3418052e-038
100.59724 17.804161 679.06738 2.3418052e-038
100.59724 18.299109 679.06738 2.3418052e-038
100.59724 18.794056 679.06738 2.3418052e-038
100.59724 19.289003 679.06738 2.3418052e-038
100.59724 19.783951 679.06738 2.3418052e-038
100.59724 20.278898 679.06738 2.3418052e-038
100.59724 20.773844 679.06738 2.3418052e-038
30.89093 -0.76513672 679.57129 3.5733111e-043
35.772034 2.3655243 682.63861 3.5733111e-043
36.156998 2.6289215 682.66248 3.5733111e-043
36.738525 3.4431915 677.19086 3.5733111e-043
37.120209 3.7043457 677.21442 3.5733111e-043
37.501877 3.9654846 677.23804 3.5733111e-043
37.883545 4.2266235 677.2616 3.5733111e-043
38.265213 4.4877777 677.28522 3.5733111e-043
38.646912 4.7489166 677.30884 3.5733111e-043
39.02858 5.0100708 677.33246 3.5733111e-043
39.410248 5.2712097 677.35602 3.5733111e-043
39.791901 5.5323639 677.37964 3.5733111e-043
40.173599 5.7935028 677.4032 3.5733111e-043
40.555267 6.0546417 677.42682 3.5733111e-043
40.936905 6.3157959 677.45038 3.5733111e-043
41.240479 6.3161926 680.21106 3.5733111e-043
41.546707 6.3166504 682.99554 3.5733111e-043
41.931656 6.5800476 683.01935 3.5733111e-043
42.31665 6.8434753 683.04315 3.5733111e-043
42.701599 7.1068573 683.06696 3.5733111e-043
43.086609 7.370285 683.09076 3.5733111e-043
43.471588 7.6336823 683.11456 3.5733111e-043
43.856552 7.8970795 683.13843 3.5733111e-043
44.241531 8.1604919 683.16217 3.5733111e-043
44.626495 8.4238892 683.18597 3.5733111e-043
45.011475 8.6873169 683.20972 3.5733111e-043
45.396469 8.9507141 683.23352 3.5733111e-043
45.781448 9.2141418 683.25732 3.5733111e-043
46.166412 9.4775391 683.28113 3.5733111e-043
46.551392 9.7409515 683.30487 3.5733111e-043
46.936371 10.004349 683.32874 3.5733111e-043
47.32135 10.267776 683.35248 3.5733111e-043
47.706345 10.531174 683.37634 3.5733111e-043
49.290161 11.823929 680.70862 3.5733111e-043
49.673492 12.086197 680.7323 3.5733111e-043
50.056793 12.34848 680.75592 3.5733111e-043
51.556137 13.165253 683.61426 3.5733111e-043
52.739975 14.184372 680.92181 3.5733111e-043
53.123306 14.446655 680.9455 3.5733111e-043
53.506653 14.708923 680.96918 3.5733111e-043
53.889954 14.971191 680.99292 3.5733111e-043
54.273254 15.233459 681.0166 3.5733111e-043
54.656586 15.495743 681.04028 3.5733111e-043
56.203766 16.761642 678.39398 3.5733111e-043
56.585419 17.022766 678.4176 3.5733111e-043
61.565521 20.01387 684.23291 3.5733111e-043
61.9505 20.277283 684.25677 3.5733111e-043
62.33551 20.540695 684.28052 3.5733111e-043
62.720474 20.804108 684.30438 3.5733111e-043
63.105438 21.067505 684.32806 3.5733111e-043
63.490417 21.330917 684.35187 3.5733111e-043
63.875397 21.59433 684.37567 3.5733111e-043
64.260391 21.857742 684.39948 3.5733111e-043
64.64537 22.121155 684.42328 3.5733111e-043
65.030334 22.384567 684.44708 3.5733111e-043
65.415283 22.647949 684.47089 3.5733111e-043
65.800293 22.911362 684.49469 3.5733111e-043
66.185272 23.174774 684.51849 3.5733111e-043
66.570267 23.438187 684.54224 3.5733111e-043
66.955215 23.701584 684.56604 3.5733111e-043
67.34021 23.964996 684.58984 3.5733111e-043
67.725159 24.228409 684.61365 3.5733111e-043
68.110168 24.491821 684.63745 3.5733111e-043
68.495132 24.755219 684.66125 3.5733111e-043
71.905853 27.297974 682.10645 3.5733111e-043
72.401108 27.216873 687.69244 3.5733111e-043
72.787811 27.48143 687.71631 3.5733111e-043
31.153076 -1.1491547 679.58069 3.5733111e-043
36.035324 1.9798431 682.64801 3.5733111e-043
36.420303 2.2432404 682.67181 3.5733111e-043
36.999588 3.0608368 677.20013 3.5733111e-043
37.381256 3.3219757 677.22375 3.5733111e-043
37.762909 3.5831146 677.24738 3.5733111e-043
38.144608 3.8442688 677.271 3.5733111e-043
38.526276 4.1054077 677.29456 3.5733111e-043
38.907913 4.3665619 677.31818 3.5733111e-043
39.289581 4.6277008 677.34174 3.5733111e-043
39.671249 4.888855 677.3653 3.5733111e-043
40.052948 5.1499939 677.38892 3.5733111e-043
40.434631 5.4111481 677.41241 3.5733111e-043
40.816299 5.6723022 677.43604 3.5733111e-043
41.197968 5.9334412 677.45959 3.5733111e-043
41.425018 5.667572 682.9812 3.5733111e-043
41.809998 5.9309692 683.00494 3.5733111e-043
42.194962 6.1943817 683.02875 3.5733111e-043
42.579926 6.4577942 683.05249 3.5733111e-043
42.964935 6.7211914 683.07635 3.5733111e-043
43.349915 6.9846039 683.1001 3.5733111e-043
43.734879 7.2480011 683.12396 3.5733111e-043
44.119858 7.5114288 683.14771 3.5733111e-043
44.504822 7.774826 683.17151 3.5733111e-043
44.889801 8.0382233 683.19537 3.5733111e-043
45.274811 8.3016357 683.21912 3.5733111e-043
45.659744 8.5650482 683.24292 3.5733111e-043
46.044754 8.8284607 683.26666 3.5733111e-043
46.429688 9.0918579 683.29047 3.5733111e-043
46.814697 9.3552704 683.31427 3.5733111e-043
47.199677 9.6186829 683.33807 3.5733111e-043
47.584671 9.8820953 683.36188 3.5733111e-043
47.96962 10.145508 683.38568 3.5733111e-043
48.354614 10.40892 683.40948 3.5733111e-043
48.739594 10.672333 683.43329 3.5733111e-043
49.124603 10.93573 683.45709 3.5733111e-043
49.509537 11.199142 683.48083 3.5733111e-043
49.894547 11.462555 683.50458 3.5733111e-043
50.27951 11.725952 683.52844 3.5733111e-043
50.664459 11.989349 683.55225 3.5733111e-043
51.049469 12.252762 683.57605 3.5733111e-043
51.434433 12.516174 683.59985 3.5733111e-043
51.819427 12.779587 683.62366 3.5733111e-043
52.204376 13.042999 683.64746 3.5733111e-043
52.589386 13.306412 683.6712 3.5733111e-043
53.002197 13.800385 680.93115 3.5733111e-043
53.385468 14.062637 680.95483 3.5733111e-043
53.768814 14.324921 680.97852 3.5733111e-043
54.152145 14.587189 681.0022 3.5733111e-043
54.535446 14.849457 681.02594 3.5733111e-043
54.918762 15.111725 681.04962 3.5733111e-043
55.302094 15.374023 681.0733 3.5733111e-043
55.685394 15.636276 681.09705 3.5733111e-043
56.452042 16.160828 681.14435 3.5733111e-043
56.824127 16.203903 683.93292 3.5733111e-043
57.209091 16.4673 683.95679 3.5733111e-043
62.213806 19.891602 684.26611 3.5733111e-043
62.598816 20.155029 684.28992 3.5733111e-043
62.983749 20.418427 684.31372 3.5733111e-043
63.368744 20.681854 684.33746 3.5733111e-043
63.753723 20.945236 684.36127 3.5733111e-043
64.138733 21.208679 684.38501 3.5733111e-043
64.523666 21.472061 684.40887 3.5733111e-043
64.908676 21.735474 684.43262 3.5733111e-043
65.29361 21.998886 684.45648 3.5733111e-043
65.678619 22.262299 684.48022 3.5733111e-043
66.063599 22.525696 684.50403 3.5733111e-043
66.448563 22.789093 684.52789 3.5733111e-043
66.833542 23.052521 684.55164 3.5733111e-043
67.218506 23.315918 684.5755 3.5733111e-043
67.603485 23.57933 684.59918 3.5733111e-043
67.988495 23.842743 684.62305 3.5733111e-043
68.373459 24.106155 684.64679 3.5733111e-043
68.758438 24.369553 684.67059 3.5733111e-043
72.113312 27.086258 679.37048 3.5733111e-043
72.665588 26.829529 687.70184 3.5733111e-043
31.415253 -1.5331573 679.59003 3.5733111e-043
36.298645 1.594162 682.65735 3.5733111e-043
36.683594 1.8575745 682.68121 3.5733111e-043
37.642288 2.9396362 677.23303 3.5733111e-043
38.023956 3.2007751 677.25665 3.5733111e-043
38.405655 3.4619141 677.28021 3.5733111e-043
38.787323 3.7230682 677.30383 3.5733111e-043
39.168976 3.9842072 677.32739 3.5733111e-043
39.550644 4.2453613 677.35101 3.5733111e-043
39.932343 4.5065002 677.37457 3.5733111e-043
40.314011 4.7676392 677.39813 3.5733111e-043
40.695679 5.0288086 677.42175 3.5733111e-043
41.077332 5.2899475 677.44531 3.5733111e-043
41.45903 5.5511017 677.46893 3.5733111e-043
41.764801 5.5481873 680.22974 3.5733111e-043
42.073288 5.5452881 683.01434 3.5733111e-043
42.458282 5.8087006 683.03815 3.5733111e-043
42.843262 6.072113 683.06195 3.5733111e-043
43.228241 6.3355255 683.08569 3.5733111e-043
43.613205 6.598938 683.1095 3.5733111e-043
43.998184 6.8623352 683.1333 3.5733111e-043
44.383179 7.1257477 683.15704 3.5733111e-043
44.768158 7.3891602 683.18091 3.5733111e-043
45.153137 7.6525726 683.20465 3.5733111e-043
45.538101 7.9159851 683.22852 3.5733111e-043
45.92305 8.1793823 683.25232 3.5733111e-043
46.308044 8.4427948 683.27612 3.5733111e-043
46.693024 8.706192 683.29987 3.5733111e-043
47.078033 8.9696198 683.32367 3.5733111e-043
47.462982 9.2330017 683.34747 3.5733111e-043
47.847977 9.4964447 683.37122 3.5733111e-043
48.232925 9.7598267 683.39508 3.5733111e-043
48.61795 10.023254 683.41882 3.5733111e-043
49.002899 10.286652 683.44269 3.5733111e-043
49.387894 10.550064 683.46643 3.5733111e-043
49.772842 10.813461 683.49023 3.5733111e-043
50.157837 11.076874 683.51404 3.5733111e-043
50.542786 11.340286 683.53778 3.5733111e-043
50.927795 11.603683 683.56165 3.5733111e-043
51.312759 11.867096 683.58539 3.5733111e-043
51.697739 12.130493 683.60925 3.5733111e-043
52.082703 12.393921 683.633 3.5733111e-043
52.467682 12.657318 683.6568 3.5733111e-043
52.852692 12.920746 683.6806 3.5733111e-043
53.264343 13.416351 680.94043 3.5733111e-043
53.647644 13.678619 680.96417 3.5733111e-043
54.030945 13.940903 680.98785 3.5733111e-043
54.414276 14.203186 681.01154 3.5733111e-043
54.797592 14.465439 681.03528 3.5733111e-043
55.180923 14.727722 681.05896 3.5733111e-043
55.56424 14.98999 681.08264 3.5733111e-043
55.947571 15.252289 681.10632 3.5733111e-043
56.714188 15.77681 681.15369 3.5733111e-043
57.107544 16.258072 678.43616 3.5733111e-043
57.472397 16.081619 683.96613 3.5733111e-043
62.477112 19.505951 684.27551 3.5733111e-043
62.862076 19.769348 684.29926 3.5733111e-043
63.247086 20.032745 684.32306 3.5733111e-043
63.63205 20.296173 684.34686 3.5733111e-043
64.017029 20.55957 684.37067 3.5733111e-043
64.402008 20.822983 684.39447 3.5733111e-043
64.786972 21.086395 684.41821 3.5733111e-043
65.171951 21.349808 684.44196 3.5733111e-043
65.556946 21.613205 684.46582 3.5733111e-043
65.941925 21.876617 684.48956 3.5733111e-043
66.326904 22.140015 684.51343 3.5733111e-043
66.711868 22.403442 684.53717 3.5733111e-043
67.096832 22.66684 684.56104 3.5733111e-043
67.481812 22.930252 684.58484 3.5733111e-043
67.866821 23.193665 684.60858 3.5733111e-043
68.25177 23.457062 684.63239 3.5733111e-043
68.636765 23.72049 684.65613 3.5733111e-043
69.021713 23.983887 684.67999 3.5733111e-043
69.363647 24.431793 681.93555 3.5733111e-043
69.746979 24.694061 681.95923 3.5733111e-043
71.280273 25.743164 682.05402 3.5733111e-043
71.663544 26.005417 682.07776 3.5733111e-043
72.046875 26.2677 682.10144 3.5733111e-043
72.374344 26.703903 679.37976 3.5733111e-043
72.871506 26.617966 684.91791 3.5733111e-043
36.561935 1.2085114 682.66681 3.5733111e-043
36.946899 1.4719086 682.69055 3.5733111e-043
37.4272 2.0169373 679.95471 3.5733111e-043
37.810501 2.2791901 679.97845 3.5733111e-043
38.193848 2.5414581 680.00214 3.5733111e-043
39.430023 3.6018524 677.33673 3.5733111e-043
39.811676 3.8629913 677.36029 3.5733111e-043
40.193344 4.1241302 677.38385 3.5733111e-043
40.575012 4.3852844 677.40747 3.5733111e-043
40.95668 4.6464233 677.43103 3.5733111e-043
41.338379 4.9075775 677.45471 3.5733111e-043
41.720032 5.1687164 677.47827 3.5733111e-043
42.101715 5.4298553 677.50189 3.5733111e-043
42.336624 5.1596375 683.02368 3.5733111e-043
42.793625 5.688736 680.28644 3.5733111e-043
43.176971 5.9510193 680.31012 3.5733111e-043
43.560272 6.2132721 680.3338 3.5733111e-043
43.943573 6.4755554 680.35748 3.5733111e-043
44.32692 6.7378235 680.38116 3.5733111e-043
44.646484 6.7400818 683.16644 3.5733111e-043
45.031433 7.003479 683.19025 3.5733111e-043
45.416443 7.2669067 683.21405 3.5733111e-043
45.801376 7.530304 683.23785 3.5733111e-043
46.186371 7.7937164 683.26172 3.5733111e-043
46.57135 8.0571136 683.28546 3.5733111e-043
46.956329 8.3205261 683.30927 3.5733111e-043
47.393433 8.8359985 680.57074 3.5733111e-043
47.726273 8.8473358 683.35681 3.5733111e-043
48.111282 9.1107483 683.38062 3.5733111e-043
48.496246 9.3741455 683.40442 3.5733111e-043
48.881226 9.6375732 683.42816 3.5733111e-043
49.266205 9.9009705 683.45203 3.5733111e-043
49.651169 10.164398 683.47577 3.5733111e-043
50.036148 10.427795 683.49963 3.5733111e-043
50.421143 10.691208 683.52338 3.5733111e-043
50.806122 10.954605 683.54724 3.5733111e-043
51.191101 11.218033 683.57098 3.5733111e-043
51.576065 11.48143 683.59479 3.5733111e-043
51.961014 11.744843 683.61859 3.5733111e-043
52.346039 12.00824 683.64233 3.5733111e-043
52.730988 12.271652 683.6662 3.5733111e-043
53.115982 12.535065 683.68994 3.5733111e-043
53.526505 13.032364 680.94977 3.5733111e-043
53.909836 13.294632 680.97345 3.5733111e-043
54.293152 13.5569 680.99719 3.5733111e-043
54.676453 13.819168 681.02087 3.5733111e-043
55.059784 14.081451 681.04456 3.5733111e-043
55.443085 14.343719 681.0683 3.5733111e-043
55.826431 14.605988 681.09198 3.5733111e-043
56.209732 14.868271 681.11566 3.5733111e-043
56.976379 15.392807 681.16302 3.5733111e-043
57.35968 15.65509 681.18671 3.5733111e-043
57.728409 15.472656 686.76471 3.5733111e-043
63.510361 19.647079 684.33246 3.5733111e-043
63.895355 19.910492 684.3562 3.5733111e-043
64.280304 20.173904 684.38007 3.5733111e-043
64.665314 20.437317 684.40381 3.5733111e-043
65.050308 20.700729 684.42767 3.5733111e-043
65.435272 20.964142 684.45142 3.5733111e-043
65.820221 21.227539 684.47516 3.5733111e-043
66.205231 21.490952 684.49896 3.5733111e-043
66.590195 21.754364 684.52277 3.5733111e-043
66.975174 22.017776 684.54657 3.5733111e-043
67.360138 22.281174 684.57037 3.5733111e-043
67.745117 22.544571 684.59424 3.5733111e-043
68.130127 22.807999 684.61798 3.5733111e-043
68.51506 23.071396 684.64178 3.5733111e-043
68.859207 23.523239 681.89752 3.5733111e-043
69.242538 23.785522 681.9212 3.5733111e-043
69.625809 24.047791 681.94489 3.5733111e-043
70.009155 24.310074 681.96857 3.5733111e-043
71.159088 25.096893 682.03967 3.5733111e-043
71.542435 25.359161 682.06335 3.5733111e-043
71.925735 25.621429 682.0871 3.5733111e-043
72.309052 25.883698 682.11078 3.5733111e-043
72.635376 26.321533 679.3891 3.5733111e-043
73.134796 26.2323 684.92731 3.5733111e-043
36.825241 0.8228302 682.67615 3.5733111e-043
37.210205 1.0862427 682.70001 3.5733111e-043
37.595215 1.3496552 682.72375 3.5733111e-043
38.072662 1.8951721 679.98779 3.5733111e-043
38.455994 2.1574554 680.01147 3.5733111e-043
39.691086 3.2194977 677.34601 3.5733111e-043
40.072754 3.4806366 677.36957 3.5733111e-043
40.454407 3.7417908 677.39319 3.5733111e-043
40.836075 4.0029297 677.41675 3.5733111e-043
41.217773 4.2640991 677.44037 3.5733111e-043
41.599442 4.5252228 677.46393 3.5733111e-043
41.98111 4.7863922 677.48755 3.5733111e-043
42.362762 5.0475159 677.51111 3.5733111e-043
42.672485 5.0424652 680.27209 3.5733111e-043
43.055771 5.304718 680.29572 3.5733111e-043
43.439102 5.5669861 680.3194 3.5733111e-043
43.822449 5.8292847 680.34308 3.5733111e-043
44.20575 6.0915375 680.36682 3.5733111e-043
44.58905 6.3538208 680.3905 3.5733111e-043
44.972382 6.6160889 680.41418 3.5733111e-043
45.355698 6.8783569 680.43793 3.5733111e-043
45.738998 7.140625 680.46161 3.5733111e-043
46.064713 7.1446381 683.24725 3.5733111e-043
46.505646 7.6651764 680.50897 3.5733111e-043
46.834656 7.6714478 683.2948 3.5733111e-043
47.219604 7.934845 683.31866 3.5733111e-043
47.60463 8.1982574 683.34241 3.5733111e-043
47.989578 8.4616699 683.36627 3.5733111e-043
48.374573 8.7250824 683.39001 3.5733111e-043
48.759521 8.9884949 683.41376 3.5733111e-043
49.144531 9.2518921 683.43756 3.5733111e-043
49.52948 9.5153046 683.46136 3.5733111e-043
49.914505 9.778717 683.48517 3.5733111e-043
50.299438 10.04213 683.50897 3.5733111e-043
50.684448 10.305542 683.53278 3.5733111e-043
51.069397 10.568939 683.55658 3.5733111e-043
51.454391 10.832352 683.58038 3.5733111e-043
51.839371 11.095764 683.60419 3.5733111e-043
52.224335 11.359161 683.62793 3.5733111e-043
52.609314 11.622574 683.65173 3.5733111e-043
52.994293 11.885986 683.67554 3.5733111e-043
53.379272 12.149399 683.69934 3.5733111e-043
53.764236 12.412796 683.72314 3.5733111e-043
54.149246 12.676208 683.74689 3.5733111e-043
54.555344 13.172897 681.00653 3.5733111e-043
54.938614 13.435165 681.03021 3.5733111e-043
55.32193 13.697433 681.05389 3.5733111e-043
55.705261 13.959702 681.07758 3.5733111e-043
56.471909 14.484253 681.12494 3.5733111e-043
56.855209 14.746536 681.14862 3.5733111e-043
57.23851 15.008789 681.17236 3.5733111e-043
57.621857 15.271072 681.19604 3.5733111e-043
57.999023 15.310287 683.98492 3.5733111e-043
58.771805 16.057892 681.26715 3.5733111e-043
63.754929 19.467438 681.57513 3.5733111e-043
64.138229 19.729691 681.59888 3.5733111e-043
64.521576 19.991974 681.62256 3.5733111e-043
64.904877 20.254242 681.64624 3.5733111e-043
65.288177 20.51651 681.66998 3.5733111e-043
65.671524 20.778793 681.69366 3.5733111e-043
66.054825 21.041061 681.71735 3.5733111e-043
66.438141 21.303329 681.74103 3.5733111e-043
66.821472 21.565598 681.76471 3.5733111e-043
67.204803 21.827881 681.78839 3.5733111e-043
67.588104 22.090164 681.81207 3.5733111e-043
68.008453 22.158936 684.60352 3.5733111e-043
68.393402 22.422318 684.62732 3.5733111e-043
68.778397 22.685715 684.65118 3.5733111e-043
69.888016 23.663788 681.95416 3.5733111e-043
70.271286 23.926056 681.97791 3.5733111e-043
70.654633 24.188324 682.00159 3.5733111e-043
71.037964 24.450607 682.02527 3.5733111e-043
71.421265 24.71286 682.04901 3.5733111e-043
71.804565 24.975143 682.07269 3.5733111e-043
72.187912 25.237411 682.09637 3.5733111e-043
72.571213 25.499695 682.12006 3.5733111e-043
72.896439 25.939194 679.39838 3.5733111e-043
73.33786 26.024246 682.16742 3.5733111e-043
73.659775 26.461472 679.44556 3.5733111e-043
74.041443 26.722626 679.46912 3.5733111e-043
36.703598 0.17376709 682.66168 3.5733111e-043
37.088531 0.43716431 682.68555 3.5733111e-043
37.473511 0.70056152 682.70935 3.5733111e-043
37.85849 0.96398926 682.73309 3.5733111e-043
38.243454 1.2273865 682.75696 3.5733111e-043
38.71814 1.7734375 680.02081 3.5733111e-043
39.952118 2.8371277 677.35529 3.5733111e-043
40.333771 3.0982819 677.37891 3.5733111e-043
40.634766 3.0848083 680.13922 3.5733111e-043
41.097107 3.620575 677.42603 3.5733111e-043
41.478775 3.8817139 677.44965 3.5733111e-043
41.860443 4.142868 677.47321 3.5733111e-043
42.242111 4.404007 677.49683 3.5733111e-043
42.551315 4.3961792 680.25775 3.5733111e-043
42.934662 4.6584473 680.28143 3.5733111e-043
43.317963 4.9207153 680.30511 3.5733111e-043
43.701294 5.1829987 680.3288 3.5733111e-043
44.084595 5.4452667 680.35248 3.5733111e-043
44.467911 5.7075348 680.37616 3.5733111e-043
44.851242 5.9698029 680.39984 3.5733111e-043
45.234558 6.2320862 680.42358 3.5733111e-043
45.617889 6.4943542 680.44727 3.5733111e-043
46.00119 6.7566376 680.47095 3.5733111e-043
46.384506 7.0189056 680.49463 3.5733111e-043
46.767838 7.2811737 680.51825 3.5733111e-043
47.151138 7.5434418 680.54199 3.5733111e-043
47.534454 7.8057098 680.56567 3.5733111e-043
47.86792 7.8125916 683.35181 3.5733111e-043
48.252884 8.0759888 683.37561 3.5733111e-043
48.637848 8.3394165 683.39935 3.5733111e-043
49.022827 8.6028137 683.42322 3.5733111e-043
49.407837 8.8662415 683.44696 3.5733111e-043
49.792801 9.1296234 683.47076 3.5733111e-043
50.17778 9.3930511 683.49451 3.5733111e-043
50.562744 9.6564484 683.51837 3.5733111e-043
50.947754 9.9198761 683.54211 3.5733111e-043
51.332733 10.183273 683.56598 3.5733111e-043
51.717697 10.446686 683.58972 3.5733111e-043
52.102676 10.710083 683.61353 3.5733111e-043
52.487671 10.973511 683.63733 3.5733111e-043
52.87262 11.236908 683.66113 3.5733111e-043
53.284195 11.739807 680.92108 3.5733111e-043
53.667526 12.002075 680.94476 3.5733111e-043
54.050842 12.264343 680.96851 3.5733111e-043
54.412537 12.290543 683.75629 3.5733111e-043
54.817474 12.788895 681.01587 3.5733111e-043
55.200775 13.051147 681.03961 3.5733111e-043
55.584122 13.313431 681.06329 3.5733111e-043
55.967422 13.575714 681.08698 3.5733111e-043
56.73407 14.10025 681.13434 3.5733111e-043
57.117401 14.362518 681.15802 3.5733111e-043
57.500671 14.624786 681.1817 3.5733111e-043
57.884018 14.88707 681.20538 3.5733111e-043
58.267349 15.149338 681.22906 3.5733111e-043
58.650665 15.411606 681.25281 3.5733111e-043
59.033966 15.673874 681.27649 3.5733111e-043
61.333862 17.247513 681.41864 3.5733111e-043
64.017059 19.08342 681.58447 3.5733111e-043
64.400406 19.345688 681.60815 3.5733111e-043
64.783707 19.607956 681.6319 3.5733111e-043
65.167053 19.870224 681.65558 3.5733111e-043
65.550354 20.132523 681.67926 3.5733111e-043
65.933655 20.394775 681.70294 3.5733111e-043
68.271729 21.773254 684.61285 3.5733111e-043
68.656723 22.036652 684.63672 3.5733111e-043
69.041672 22.300049 684.66052 3.5733111e-043
70.150177 23.279785 681.96356 3.5733111e-043
70.533478 23.542038 681.98724 3.5733111e-043
70.916794 23.804321 682.01093 3.5733111e-043
71.300125 24.066589 682.03461 3.5733111e-043
71.683456 24.328888 682.05829 3.5733111e-043
72.066772 24.591125 682.08203 3.5733111e-043
72.450073 24.853424 682.10565 3.5733111e-043
72.833405 25.115692 682.12933 3.5733111e-043
73.157486 25.556824 679.40765 3.5733111e-043
73.539124 25.817963 679.43127 3.5733111e-043
73.920807 26.079117 679.45483 3.5733111e-043
74.302475 26.340256 679.47845 3.5733111e-043
35.633102 -0.67897034 677.08148 3.5733111e-043
36.014771 -0.41783142 677.10504 3.5733111e-043
36.396439 -0.15667725 677.12866 3.5733111e-043
36.778107 0.10446167 677.15222 3.5733111e-043
37.15976 0.36561584 677.17584 3.5733111e-043
37.447083 0.34036255 679.9353 3.5733111e-043
37.830383 0.60263062 679.95898 3.5733111e-043
38.213684 0.86489868 679.98273 3.5733111e-043
38.597031 1.1271667 680.00641 3.5733111e-043
38.980331 1.3894653 680.03009 3.5733111e-043
39.449799 1.9324799 677.31744 3.5733111e-043
39.831451 2.1936188 677.341 3.5733111e-043
40.21312 2.4547729 677.36456 3.5733111e-043
40.594818 2.7159119 677.38818 3.5733111e-043
40.896927 2.7008057 680.14856 3.5733111e-043
41.280258 2.963089 680.17224 3.5733111e-043
41.739807 3.4993439 677.45892 3.5733111e-043
42.121506 3.760498 677.48254 3.5733111e-043
42.503174 4.021637 677.5061 3.5733111e-043
42.813492 4.0121613 680.26703 3.5733111e-043
43.196793 4.2744293 680.29071 3.5733111e-043
43.580139 4.5367126 680.31439 3.5733111e-043
43.96344 4.7989655 680.33813 3.5733111e-043
44.346771 5.061264 680.36182 3.5733111e-043
44.793167 5.5885162 677.64771 3.5733111e-043
45.174835 5.8496552 677.67133 3.5733111e-043
45.556534 6.1108093 677.69489 3.5733111e-043
45.938202 6.3719482 677.71844 3.5733111e-043
46.263336 6.3726196 680.48029 3.5733111e-043
46.646667 6.6348877 680.50397 3.5733111e-043
47.029968 6.897171 680.52765 3.5733111e-043
47.413284 7.1594238 680.55133 3.5733111e-043
47.796616 7.4217072 680.57507 3.5733111e-043
48.179962 7.6839752 680.59875 3.5733111e-043
48.516174 7.6903381 683.38501 3.5733111e-043
48.901184 7.9537354 683.40875 3.5733111e-043
49.286163 8.2171478 683.43256 3.5733111e-043
49.671143 8.4805603 683.45636 3.5733111e-043
50.056107 8.7439728 683.48016 3.5733111e-043
50.441071 9.0073853 683.50397 3.5733111e-043
50.82608 9.2707977 683.52771 3.5733111e-043
51.24646 9.7821655 680.78827 3.5733111e-043
51.629791 10.044434 680.81195 3.5733111e-043
52.013138 10.306717 680.83563 3.5733111e-043
52.396439 10.56897 680.85938 3.5733111e-043
52.779755 10.831238 680.88306 3.5733111e-043
53.163086 11.093536 680.90668 3.5733111e-043
53.546387 11.355789 680.93042 3.5733111e-043
53.929688 11.618073 680.9541 3.5733111e-043
54.313034 11.880341 680.97778 3.5733111e-043
54.696335 12.142609 681.00153 3.5733111e-043
55.079666 12.404877 681.02521 3.5733111e-043
55.462982 12.66716 681.04889 3.5733111e-043
55.846252 12.929413 681.07257 3.5733111e-043
56.229599 13.191681 681.09625 3.5733111e-043
56.6129 13.453979 681.11993 3.5733111e-043
56.996201 13.716232 681.14368 3.5733111e-043
57.379547 13.978516 681.16736 3.5733111e-043
57.762878 14.240784 681.19104 3.5733111e-043
58.146149 14.503052 681.21478 3.5733111e-043
58.529495 14.765335 681.23846 3.5733111e-043
58.912827 15.027603 681.26215 3.5733111e-043
59.296127 15.289871 681.28583 3.5733111e-043
61.596039 16.863495 681.42798 3.5733111e-043
61.990417 16.909622 684.21771 3.5733111e-043
63.14534 17.69986 684.28918 3.5733111e-043
63.530319 17.963257 684.31293 3.5733111e-043
63.915314 18.226669 684.33679 3.5733111e-043
64.279266 18.699402 681.59381 3.5733111e-043
64.662567 18.9617 681.61749 3.5733111e-043
65.045898 19.223969 681.64117 3.5733111e-043
65.429199 19.486237 681.66492 3.5733111e-043
65.812546 19.748505 681.6886 3.5733111e-043
66.195847 20.010788 681.71222 3.5733111e-043
68.535049 21.387573 684.62231 3.5733111e-043
68.920013 21.65097 684.64606 3.5733111e-043
69.220123 22.301865 679.15753 3.5733111e-043
69.601807 22.563004 679.18109 3.5733111e-043
69.983459 22.824158 679.20471 3.5733111e-043
70.412338 22.895767 681.9729 3.5733111e-043
70.795685 23.158051 681.99658 3.5733111e-043
71.178986 23.420303 682.02032 3.5733111e-043
71.562286 23.682602 682.04401 3.5733111e-043
71.945618 23.94487 682.06769 3.5733111e-043
72.328903 24.207123 682.09137 3.5733111e-043
72.71225 24.469391 682.11505 3.5733111e-043
73.095551 24.731674 682.13873 3.5733111e-043
73.418518 25.174469 679.41693 3.5733111e-043
73.800186 25.435623 679.44055 3.5733111e-043
74.181885 25.696762 679.46417 3.5733111e-043
74.563538 25.957916 679.48773 3.5733111e-043
35.894135 -1.0613403 677.09076 3.5733111e-043
36.275803 -0.80018616 677.11438 3.5733111e-043
36.657471 -0.53904724 677.13794 3.5733111e-043
37.039169 -0.27789307 677.16162 3.5733111e-043
37.325882 -0.30592346 679.92102 3.5733111e-043
37.709213 -0.043655396 679.9447 3.5733111e-043
38.09256 0.21862793 679.96838 3.5733111e-043
38.47583 0.48088074 679.99207 3.5733111e-043
38.859161 0.74316406 680.01575 3.5733111e-043
39.242508 1.0054474 680.03943 3.5733111e-043
39.710861 1.5501404 677.32666 3.5733111e-043
40.092529 1.8112793 677.35028 3.5733111e-043
40.474213 2.0724182 677.37384 3.5733111e-043
40.855881 2.3335724 677.3974 3.5733111e-043
41.159058 2.316803 680.1579 3.5733111e-043
41.619217 2.8558655 677.44458 3.5733111e-043
42.000885 3.1170044 677.4682 3.5733111e-043
42.382553 3.3781433 677.49182 3.5733111e-043
42.764221 3.6392975 677.51544 3.5733111e-043
43.075653 3.6281433 680.27643 3.5733111e-043
43.458984 3.8904419 680.30005 3.5733111e-043
43.842285 4.15271 680.32373 3.5733111e-043
44.225632 4.4149933 680.34741 3.5733111e-043
44.672577 4.9450226 677.63336 3.5733111e-043
45.05423 5.2061768 677.65692 3.5733111e-043
45.435928 5.4673157 677.68054 3.5733111e-043
45.817596 5.7284698 677.7041 3.5733111e-043
46.199265 5.9895935 677.72772 3.5733111e-043
46.580933 6.2507629 677.75128 3.5733111e-043
46.908829 6.250885 680.51331 3.5733111e-043
47.292175 6.5131531 680.53699 3.5733111e-043
47.675476 6.7754517 680.56067 3.5733111e-043
48.058777 7.0377045 680.58441 3.5733111e-043
48.442123 7.2999878 680.60809 3.5733111e-043
48.825455 7.5622559 680.63177 3.5733111e-043
49.20871 7.8245087 680.65546 3.5733111e-043
49.592041 8.086792 680.67914 3.5733111e-043
49.975372 8.3490601 680.70282 3.5733111e-043
50.358688 8.6113281 680.72656 3.5733111e-043
50.741989 8.8735962 680.75024 3.5733111e-043
51.12532 9.1358948 680.77393 3.5733111e-043
51.508636 9.3981476 680.79761 3.5733111e-043
51.891937 9.6604156 680.82129 3.5733111e-043
52.275269 9.922699 680.84497 3.5733111e-043
52.658569 10.184952 680.86871 3.5733111e-043
53.041916 10.447235 680.89233 3.5733111e-043
53.425217 10.709518 680.91602 3.5733111e-043
53.808533 10.971786 680.93976 3.5733111e-043
54.191864 11.234055 680.96344 3.5733111e-043
54.575165 11.496338 680.98712 3.5733111e-043
54.958466 11.758591 681.01086 3.5733111e-043
55.341812 12.020874 681.03455 3.5733111e-043
55.725143 12.283157 681.05823 3.5733111e-043
56.108429 12.54541 681.08197 3.5733111e-043
56.49176 12.807693 681.10559 3.5733111e-043
56.875092 13.069962 681.12927 3.5733111e-043
57.258392 13.332245 681.15295 3.5733111e-043
57.641708 13.594513 681.1767 3.5733111e-043
58.02504 13.856781 681.20038 3.5733111e-043
58.408386 14.119064 681.22406 3.5733111e-043
58.791656 14.381317 681.2478 3.5733111e-043
59.174988 14.6436 681.27148 3.5733111e-043
59.558868 14.680084 684.06061 3.5733111e-043
62.253723 16.523956 684.22717 3.5733111e-043
63.408646 17.314178 684.29852 3.5733111e-043
63.793655 17.577606 684.32233 3.5733111e-043
64.178589 17.840988 684.34613 3.5733111e-043
64.563599 18.104416 684.36993 3.5733111e-043
64.924744 18.577667 681.62683 3.5733111e-043
65.333542 18.63121 684.41754 3.5733111e-043
65.718536 18.894638 684.44135 3.5733111e-043
66.103485 19.15802 684.46509 3.5733111e-043
66.488464 19.421448 684.48889 3.5733111e-043
66.841293 19.889023 681.7453 3.5733111e-043
67.22464 20.151306 681.76898 3.5733111e-043
67.607971 20.413574 681.79266 3.5733111e-043
67.991272 20.675858 681.81641 3.5733111e-043
68.374573 20.938126 681.84009 3.5733111e-043
68.79837 21.001907 684.63165 3.5733111e-043
69.183304 21.265305 684.65552 3.5733111e-043
69.481171 21.919495 679.16675 3.5733111e-043
69.862839 22.180664 679.19031 3.5733111e-043
70.244537 22.441803 679.21393 3.5733111e-043
70.674515 22.511765 681.98224 3.5733111e-043
71.057816 22.774033 682.00592 3.5733111e-043
71.441162 23.036316 682.0296 3.5733111e-043
71.824463 23.298584 682.05334 3.5733111e-043
72.207764 23.560867 682.07703 3.5733111e-043
72.591095 23.823135 682.10065 3.5733111e-043
72.974411 24.085388 682.12439 3.5733111e-043
73.357742 24.347672 682.14807 3.5733111e-043
73.679565 24.792114 679.42627 3.5733111e-043
74.061218 25.053253 679.44983 3.5733111e-043
74.442886 25.314407 679.47345 3.5733111e-043
74.824554 25.575546 679.49701 3.5733111e-043
31.956818 -4.3162994 676.84058 3.5733111e-043
32.33847 -4.0551453 676.86414 3.5733111e-043
32.720154 -3.7940063 676.88776 3.5733111e-043
33.101807 -3.5328369 676.91132 3.5733111e-043
33.48349 -3.271698 676.93494 3.5733111e-043
33.865173 -3.0105591 676.9585 3.5733111e-043
35.953583 -2.0368958 682.59467 3.5733111e-043
36.338531 -1.7734833 682.61847 3.5733111e-043
36.723526 -1.5100708 682.64227 3.5733111e-043
37.204773 -0.95219421 679.90662 3.5733111e-043
37.588074 -0.68992615 679.9303 3.5733111e-043
37.97139 -0.42765808 679.95404 3.5733111e-043
38.354721 -0.16539001 679.97772 3.5733111e-043
38.738052 0.096893311 680.0014 3.5733111e-043
39.121338 0.35916138 680.02515 3.5733111e-043
39.504669 0.62142944 680.04883 3.5733111e-043
39.888 0.88371277 680.07251 3.5733111e-043
40.353561 1.4289093 677.35956 3.5733111e-043
40.735229 1.6900635 677.38312 3.5733111e-043
41.037949 1.6705322 680.14355 3.5733111e-043
41.421234 1.932785 680.16724 3.5733111e-043
41.880249 2.4734955 677.45398 3.5733111e-043
42.261917 2.7346344 677.47754 3.5733111e-043
42.571182 2.7196045 680.23834 3.5733111e-043
42.954514 2.9818726 680.26196 3.5733111e-043
43.33783 3.2441559 680.28564 3.5733111e-043
43.72113 3.5064087 680.30939 3.5733111e-043
44.104462 3.7687073 680.33307 3.5733111e-043
44.551941 4.3015289 677.61908 3.5733111e-043
44.933609 4.5626678 677.6427 3.5733111e-043
45.315308 4.823822 677.66626 3.5733111e-043
45.69693 5.0849457 677.68982 3.5733111e-043
46.078598 5.3460846 677.71344 3.5733111e-043
46.460266 5.6072388 677.737 3.5733111e-043
46.841965 5.8683777 677.76062 3.5733111e-043
47.171005 5.8668671 680.52264 3.5733111e-043
47.554306 6.1291504 680.54633 3.5733111e-043
47.937653 6.3914185 680.57001 3.5733111e-043
48.320953 6.6536713 680.59375 3.5733111e-043
48.704254 6.9159698 680.61743 3.5733111e-043
49.087585 7.1782379 680.64111 3.5733111e-043
49.470932 7.4405212 680.66479 3.5733111e-043
49.854202 7.702774 680.68848 3.5733111e-043
50.237549 7.9650574 680.71216 3.5733111e-043
50.62088 8.2273254 680.73584 3.5733111e-043
51.004181 8.4896088 680.75958 3.5733111e-043
51.387482 8.7518768 680.78326 3.5733111e-043
51.770828 9.0141449 680.80695 3.5733111e-043
52.154129 9.276413 680.83069 3.5733111e-043
52.537445 9.538681 680.85437 3.5733111e-043
52.920776 9.8009644 680.87799 3.5733111e-043
53.304077 10.063232 680.90173 3.5733111e-043
53.687408 10.325516 680.92542 3.5733111e-043
54.070724 10.587784 680.9491 3.5733111e-043
54.454025 10.850037 680.97278 3.5733111e-043
54.837372 11.11232 680.99646 3.5733111e-043
55.220673 11.374603 681.02014 3.5733111e-043
55.603973 11.636871 681.04388 3.5733111e-043
55.987305 11.899139 681.06757 3.5733111e-043
56.370651 12.161423 681.09125 3.5733111e-043
56.753906 12.423676 681.11493 3.5733111e-043
57.137238 12.685959 681.13861 3.5733111e-043
57.520569 12.948227 681.16229 3.5733111e-043
57.90387 13.21048 681.18604 3.5733111e-043
58.287186 13.472778 681.20972 3.5733111e-043
58.670517 13.735046 681.2334 3.5733111e-043
59.053818 13.997314 681.25714 3.5733111e-043
59.437134 14.259583 681.28076 3.5733111e-043
59.822189 14.294434 684.06995 3.5733111e-043
60.207153 14.557831 684.09375 3.5733111e-043
62.517029 16.13829 684.23651 3.5733111e-043
63.671951 16.928513 684.30792 3.5733111e-043
64.056946 17.191925 684.33167 3.5733111e-043
64.441895 17.455322 684.35553 3.5733111e-043
64.826904 17.71875 684.37927 3.5733111e-043
65.186905 18.19368 681.63623 3.5733111e-043
65.596848 18.245544 684.42694 3.5733111e-043
65.981812 18.508957 684.45068 3.5733111e-043
66.366791 18.772369 684.47455 3.5733111e-043
66.75177 19.035782 684.49829 3.5733111e-043
67.136765 19.299194 684.52209 3.5733111e-043
67.521744 19.562592 684.54584 3.5733111e-043
67.906708 19.826004 684.56964 3.5733111e-043
68.291687 20.089417 684.59344 3.5733111e-043
68.676651 20.352829 684.61725 3.5733111e-043
69.06163 20.616241 684.64105 3.5733111e-043
69.44664 20.879639 684.66486 3.5733111e-043
69.786728 21.340942 681.92047 3.5733111e-043
70.170029 21.60321 681.94415 3.5733111e-043
70.553345 21.865479 681.96783 3.5733111e-043
70.936646 22.127747 681.99158 3.5733111e-043
71.319977 22.39003 682.01526 3.5733111e-043
71.703293 22.652298 682.03894 3.5733111e-043
72.086594 22.914566 682.06268 3.5733111e-043
72.469925 23.176849 682.0863 3.5733111e-043
72.853241 23.439117 682.10999 3.5733111e-043
73.236542 23.701385 682.13373 3.5733111e-043
73.619873 23.963654 682.15741 3.5733111e-043
73.940582 24.409744 679.43555 3.5733111e-043
74.32225 24.670898 679.45917 3.5733111e-043
74.703918 24.932037 679.48273 3.5733111e-043
75.085617 25.193176 679.50635 3.5733111e-043
32.217865 -4.6986542 676.84985 3.5733111e-043
32.599518 -4.4375153 676.87347 3.5733111e-043
32.981171 -4.1763611 676.89703 3.5733111e-043
33.362854 -3.9152222 676.92059 3.5733111e-043
33.633759 -3.9589386 679.67902 3.5733111e-043
34.01709 -3.6966553 679.7027 3.5733111e-043
34.400391 -3.4343719 679.72638 3.5733111e-043
34.783707 -3.1721191 679.75012 3.5733111e-043
35.167023 -2.9098358 679.7738 3.5733111e-043
35.550323 -2.6475677 679.79749 3.5733111e-043
35.831879 -2.6859894 682.58026 3.5733111e-043
36.216858 -2.4225616 682.604 3.5733111e-043
36.601822 -2.1591644 682.62787 3.5733111e-043
36.986832 -1.8957367 682.65161 3.5733111e-043
37.371796 -1.6323395 682.67548 3.5733111e-043
37.756775 -1.368927 682.69922 3.5733111e-043
38.141754 -1.1055298 682.72302 3.5733111e-043
38.526733 -0.84210205 682.74683 3.5733111e-043
38.911728 -0.57870483 682.77063 3.5733111e-043
39.383499 -0.024856567 680.03448 3.5733111e-043
39.681671 -0.051879883 682.81818 3.5733111e-043
40.06662 0.21151733 682.84198 3.5733111e-043
40.533447 0.76196289 680.10553 3.5733111e-043
40.916779 1.024231 680.12921 3.5733111e-043
41.300095 1.2865295 680.15289 3.5733111e-043
41.683426 1.5487976 680.17657 3.5733111e-043
42.066742 1.8110657 680.20032 3.5733111e-043
42.450043 2.0733337 680.224 3.5733111e-043
42.833374 2.3356018 680.24768 3.5733111e-043
43.216675 2.5978699 680.27136 3.5733111e-043
43.600021 2.8601532 680.29504 3.5733111e-043
43.983322 3.1224365 680.31873 3.5733111e-043
44.366638 3.3846893 680.34241 3.5733111e-043
44.812973 3.9191437 677.62836 3.5733111e-043
45.194641 4.1802979 677.65198 3.5733111e-043
45.576309 4.4414368 677.67554 3.5733111e-043
45.958008 4.7026062 677.69916 3.5733111e-043
46.339661 4.9637451 677.72272 3.5733111e-043
46.721359 5.224884 677.74634 3.5733111e-043
47.049866 5.2205963 680.50824 3.5733111e-043
47.433197 5.4828796 680.53192 3.5733111e-043
47.816498 5.7451477 680.55566 3.5733111e-043
48.199799 6.007431 680.57935 3.5733111e-043
48.583145 6.2696991 680.60303 3.5733111e-043
48.966446 6.5319519 680.62677 3.5733111e-043
49.349731 6.7942352 680.65039 3.5733111e-043
49.733063 7.0565033 680.67407 3.5733111e-043
50.116364 7.3187714 680.69781 3.5733111e-043
50.49968 7.5810394 680.7215 3.5733111e-043
50.883011 7.8433228 680.74518 3.5733111e-043
51.266327 8.1055908 680.76892 3.5733111e-043
51.649658 8.3678589 680.7926 3.5733111e-043
52.032959 8.6301422 680.81628 3.5733111e-043
52.416275 8.892395 680.84003 3.5733111e-043
52.799606 9.1546783 680.86365 3.5733111e-043
53.182907 9.4169617 680.88733 3.5733111e-043
53.566223 9.6792297 680.91107 3.5733111e-043
53.949554 9.9414978 680.93475 3.5733111e-043
54.332886 10.203766 680.95844 3.5733111e-043
54.716187 10.466049 680.98212 3.5733111e-043
55.099503 10.728302 681.00586 3.5733111e-043
55.482834 10.990601 681.02954 3.5733111e-043
55.86615 11.252869 681.05322 3.5733111e-043
56.249451 11.515137 681.0769 3.5733111e-043
56.632782 11.777405 681.10059 3.5733111e-043
57.016113 12.039688 681.12427 3.5733111e-043
57.399399 12.301941 681.14795 3.5733111e-043
57.78273 12.564224 681.17163 3.5733111e-043
58.166077 12.826508 681.19531 3.5733111e-043
58.549377 13.08876 681.21906 3.5733111e-043
58.932678 13.351044 681.24274 3.5733111e-043
59.31601 13.613312 681.26642 3.5733111e-043
59.699326 13.87558 681.2901 3.5733111e-043
60.08548 13.908768 684.07935 3.5733111e-043
60.470459 14.17218 684.10315 3.5733111e-043
63.935242 16.542847 684.31732 3.5733111e-043
64.320221 16.806244 684.34113 3.5733111e-043
64.705231 17.069656 684.36487 3.5733111e-043
65.09021 17.333069 684.38861 3.5733111e-043
65.449036 17.809662 681.64557 3.5733111e-043
65.860153 17.859879 684.43622 3.5733111e-043
66.245117 18.123291 684.46008 3.5733111e-043
66.630096 18.386688 684.48389 3.5733111e-043
67.015091 18.650116 684.50769 3.5733111e-043
67.40004 18.913513 684.53149 3.5733111e-043
67.785034 19.176941 684.55524 3.5733111e-043
68.169983 19.440323 684.57904 3.5733111e-043
68.554993 19.703751 684.60278 3.5733111e-043
68.939972 19.967148 684.62665 3.5733111e-043
69.324966 20.230576 684.65039 3.5733111e-043
69.7099 20.493958 684.67426 3.5733111e-043
70.09491 20.757385 684.698 3.5733111e-043
70.43219 21.219208 681.95349 3.5733111e-043
70.815506 21.481476 681.97717 3.5733111e-043
71.198837 21.743759 682.00085 3.5733111e-043
71.582153 22.006012 682.0246 3.5733111e-043
71.965485 22.268311 682.04828 3.5733111e-043
72.348785 22.530579 682.07196 3.5733111e-043
72.732086 22.792831 682.09564 3.5733111e-043
73.115433 23.055115 682.11932 3.5733111e-043
73.498749 23.317383 682.14301 3.5733111e-043
73.88205 23.579651 682.16675 3.5733111e-043
74.20166 24.027405 679.44482 3.5733111e-043
74.583313 24.288544 679.46838 3.5733111e-043
74.965027 24.549683 679.492 3.5733111e-043
75.34668 24.810837 679.51556 3.5733111e-043
32.478851 -5.0810242 676.85919 3.5733111e-043
32.860535 -4.81987 676.88275 3.5733111e-043
33.242218 -4.5587311 676.90637 3.5733111e-043
33.623886 -4.2975769 676.92999 3.5733111e-043
33.89592 -4.3429413 679.68835 3.5733111e-043
34.279236 -4.0806732 679.71204 3.5733111e-043
34.662567 -3.8183899 679.73572 3.5733111e-043
35.045868 -3.5561066 679.75946 3.5733111e-043
35.429169 -3.2938538 679.78314 3.5733111e-043
35.710205 -3.3350525 682.56586 3.5733111e-043
36.095154 -3.0716553 682.58966 3.5733111e-043
36.480194 -2.8082428 682.61346 3.5733111e-043
36.865158 -2.5448303 682.63721 3.5733111e-043
37.250137 -2.2814178 682.66101 3.5733111e-043
37.635071 -2.0180054 682.68481 3.5733111e-043
38.020081 -1.7545929 682.70856 3.5733111e-043
38.40509 -1.4911804 682.73242 3.5733111e-043
38.790054 -1.2277832 682.75616 3.5733111e-043
39.175034 -0.96437073 682.78003 3.5733111e-043
39.559998 -0.70095825 682.80377 3.5733111e-043
39.944977 -0.43754578 682.82764 3.5733111e-043
40.329926 -0.17416382 682.85138 3.5733111e-043
40.714951 0.089248657 682.87518 3.5733111e-043
41.099899 0.35266113 682.89899 3.5733111e-043
41.484894 0.61607361 682.92273 3.5733111e-043
41.945587 1.1647949 680.18591 3.5733111e-043
42.328888 1.4270477 680.20966 3.5733111e-043
42.712234 1.6893158 680.23334 3.5733111e-043
43.095535 1.9515991 680.25702 3.5733111e-043
43.478821 2.2138519 680.2807 3.5733111e-043
43.862152 2.4761353 680.30438 3.5733111e-043
44.245483 2.7384033 680.32806 3.5733111e-043
44.628769 3.0006866 680.35181 3.5733111e-043
45.074036 3.5368195 677.6377 3.5733111e-043
45.455704 3.7979431 677.66125 3.5733111e-043
45.837372 4.0591125 677.68488 3.5733111e-043
46.162048 4.0497589 680.44653 3.5733111e-043
46.54538 4.3120422 680.47021 3.5733111e-043
46.928726 4.5743256 680.4939 3.5733111e-043
47.311996 4.8365936 680.51758 3.5733111e-043
47.695343 5.0988617 680.54126 3.5733111e-043
48.078674 5.361145 680.56494 3.5733111e-043
48.461975 5.6234131 680.58868 3.5733111e-043
48.845276 5.8856812 680.61237 3.5733111e-043
49.228622 6.1479645 680.63605 3.5733111e-043
49.611923 6.4102173 680.65973 3.5733111e-043
49.995239 6.6725006 680.68341 3.5733111e-043
50.378571 6.9347687 680.70709 3.5733111e-043
50.761871 7.197052 680.73083 3.5733111e-043
51.145172 7.4593201 680.75452 3.5733111e-043
