# .PCD v0.7 - Point Cloud Data file format
VERSION 0.7
FIELDS x y z
SIZE 4 4 4
TYPE F F F
COUNT 1 1 1
WIDTH 1523
HEIGHT 1
VIEWPOINT 0 0 0 1 0 0 0
POINTS 1523
DATA ascii
29.994095 -11.512833 649.36401
30.057663 -11.043533 649.40454
30.121231 -10.574234 649.44507
30.184792 -10.10495 649.48566
30.24836 -9.6356506 649.52618
30.31192 -9.1663666 649.56671
30.375488 -8.6970673 649.60724
30.774521 -7.7465515 646.82861
30.837799 -7.2793121 646.86896
30.901093 -6.8120804 646.90936
30.964371 -6.3448486 646.94971
31.027664 -5.8776169 646.99005
31.090942 -5.4103775 647.0304
31.154236 -4.9431458 647.07074
31.217514 -4.475914 647.11108
31.280807 -4.0086823 647.15143
31.344086 -3.5414429 647.19183
31.407379 -3.0742188 647.23218
31.470665 -2.6069794 647.27252
31.533951 -2.1397476 647.31287
31.265396 -2.1269608 650.17462
31.328964 -1.6576691 650.21521
31.392525 -1.1883698 650.25574
31.456093 -0.71907806 650.29626
31.519653 -0.24978638 650.33679
31.583221 0.21950531 650.37732
31.64679 0.688797 650.41785
31.71035 1.1580963 650.45837
31.773918 1.627388 650.4989
31.505241 1.6569138 653.38751
31.569092 2.1282806 653.42822
31.632935 2.5996552 653.46893
31.696777 3.0710297 653.50964
31.760628 3.5424042 653.55035
31.824478 4.0137711 653.59106
31.888321 4.4851379 653.63177
31.952164 4.9565125 653.67249
32.346001 5.8510284 650.86365
32.409561 6.3203278 650.90417
32.473129 6.7896118 650.94476
32.536697 7.2589111 650.98529
32.600258 7.7282028 651.02582
32.663826 8.1974945 651.06635
32.727386 8.6667938 651.10687
32.790955 9.1360779 651.1474
32.526779 9.1988525 654.03888
32.59063 9.6702271 654.07959
32.65448 10.141602 654.1203
32.718323 10.612968 654.16101
32.782166 11.084343 654.20172
32.846016 11.55571 654.24243
32.909866 12.027084 654.28314
32.973709 12.498459 654.32385
32.709167 12.576462 657.24231
32.7733 13.049927 657.2832
32.506683 13.130753 660.22784
32.571106 13.606331 660.26892
32.635521 14.081917 660.31
32.367096 14.167725 663.28149
29.059837 -31.644272 633.6413
29.122032 -31.185104 633.68091
29.184227 -30.725922 633.72058
28.910149 -30.837189 636.47394
28.706337 -26.504517 645.28253
28.425323 -26.599136 648.13538
28.488884 -26.129852 648.1759
28.552452 -25.660553 648.21643
28.616013 -25.191254 648.25696
28.679581 -24.72197 648.29749
28.743149 -24.25267 648.33801
28.806709 -23.783371 648.37854
28.87027 -23.314087 648.41907
28.933838 -22.844788 648.45959
28.652588 -22.92363 651.33917
28.716431 -22.452255 651.37988
28.780273 -21.980881 651.42059
28.844124 -21.509521 651.4613
28.907974 -21.038147 651.50201
28.971817 -20.566772 651.54272
29.03566 -20.095398 651.58344
29.09951 -19.624023 651.62415
29.163361 -19.152649 651.66486
29.227203 -18.68129 651.70557
29.291046 -18.209915 651.74628
29.354897 -17.738541 651.78699
29.418747 -17.267166 651.8277
29.48259 -16.795792 651.86841
29.546432 -16.324432 651.90912
29.610283 -15.853058 651.94983
29.674126 -15.381683 651.99054
29.737976 -14.910309 652.03125
29.801819 -14.438934 652.07196
29.865669 -13.967575 652.11267
29.929512 -13.496201 652.15338
30.332268 -12.52034 649.35126
30.395828 -12.051041 649.39185
30.459396 -11.581757 649.43237
30.522964 -11.112457 649.4729
30.586533 -10.643158 649.51343
30.650093 -10.173874 649.55396
30.713661 -9.7045746 649.59448
30.777222 -9.2352905 649.63501
30.84079 -8.7659912 649.67554
31.237778 -7.8151703 646.89667
31.301056 -7.3479385 646.93701
31.364349 -6.8807068 646.97736
31.427628 -6.413475 647.0177
31.490921 -5.9462357 647.05804
31.554199 -5.4790039 647.09839
31.617493 -5.0117722 647.13873
31.680771 -4.5445404 647.17914
31.744064 -4.077301 647.21948
31.807343 -3.6100693 647.25983
31.870636 -3.1428375 647.30017
31.933922 -2.6755981 647.34052
31.997208 -2.2083664 647.38086
31.730698 -2.1958771 650.24298
31.794266 -1.726593 650.28351
31.857826 -1.2572937 650.32404
31.921394 -0.78799438 650.36456
31.984955 -0.31871033 650.40509
32.048523 0.15058899 650.44562
32.112091 0.61987305 650.48615
32.175652 1.0891724 650.52667
32.23922 1.5584717 650.5672
31.972595 1.5876923 653.45612
32.036446 2.0590515 653.49683
32.100296 2.530426 653.53754
32.164139 3.0018005 653.57825
32.227982 3.473175 653.61896
32.291832 3.9445496 653.65967
32.355675 4.4159088 653.70038
32.747742 5.3128204 650.89148
32.811302 5.7821045 650.93201
32.874863 6.2514038 650.97253
32.938431 6.7206879 651.01306
33.001999 7.1899872 651.05359
33.065559 7.6592865 651.09412
33.129128 8.1285706 651.13464
33.192688 8.5978699 651.17517
33.256256 9.0671539 651.2157
32.994141 9.1296234 654.10748
33.057983 9.6009979 654.14819
33.121834 10.072372 654.1889
33.185684 10.543747 654.22961
33.249527 11.015121 654.27032
33.31337 11.486481 654.31104
33.37722 11.957855 654.35175
33.441071 12.42923 654.39246
33.504913 12.900604 654.43317
33.242737 12.980392 657.35211
32.978226 13.060898 660.29712
33.042641 13.536484 660.3382
33.107056 14.01207 660.37927
29.515099 -31.7117 633.70813
29.577293 -31.252533 633.74774
29.639488 -30.793365 633.78741
29.701683 -30.334198 633.82709
29.169594 -26.573143 645.35052
28.89061 -26.66806 648.20367
28.954178 -26.198776 648.2442
29.017746 -25.729477 648.28473
29.081314 -25.260178 648.32526
29.144875 -24.790894 648.36578
29.208435 -24.321594 648.40631
29.272003 -23.852295 648.44684
29.335571 -23.383011 648.48737
29.399132 -22.913712 648.52789
29.119949 -22.992859 651.40778
29.183792 -22.521484 651.44849
29.247635 -22.05011 651.4892
29.311485 -21.578751 651.52991
29.375336 -21.107376 651.57062
29.439178 -20.636002 651.61133
29.503021 -20.164627 651.65204
29.566872 -19.693253 651.69275
29.630722 -19.221878 651.73346
29.694565 -18.750519 651.77417
29.758408 -18.279144 651.81488
29.822258 -17.80777 651.85559
29.886108 -17.336395 651.8963
29.949951 -16.865021 651.93701
30.013794 -16.393661 651.97772
30.077644 -15.922287 652.01843
30.141487 -15.450912 652.05914
30.205338 -14.979538 652.09985
30.26918 -14.508163 652.14056
30.333031 -14.036804 652.18127
30.396873 -13.56543 652.22198
30.797562 -12.589264 649.41962
30.86113 -12.119965 649.46014
30.92469 -11.650681 649.50067
30.988258 -11.181381 649.5412
31.051819 -10.712082 649.58173
31.115387 -10.242798 649.62225
31.178955 -9.7734985 649.66278
31.242516 -9.3042145 649.70331
31.306084 -8.8349152 649.74384
31.701035 -7.8837967 646.96466
31.764313 -7.4165573 647.005
31.827606 -6.9493256 647.04535
31.890884 -6.4820938 647.08569
31.954178 -6.0148621 647.12604
32.017456 -5.5476227 647.16644
32.08075 -5.0803909 647.20679
32.144028 -4.6131592 647.24713
32.207321 -4.1459198 647.28748
32.270599 -3.678688 647.32782
32.333893 -3.2114563 647.36816
32.397179 -2.7442169 647.40851
32.460464 -2.2769928 647.44891
32.195992 -2.264801 650.31128
32.259552 -1.7955093 650.35181
32.32312 -1.3262177 650.39233
32.386688 -0.85691833 650.43286
32.450256 -0.38763428 650.47339
32.513817 0.081665039 650.51392
32.577377 0.55095673 650.55444
32.640945 1.0202484 650.59497
32.704514 1.4895477 650.6355
32.439957 1.5184631 653.52472
32.503807 1.9898224 653.56543
32.567657 2.4611969 653.60614
32.6315 2.9325714 653.64685
32.695343 3.4039459 653.68756
32.759193 3.8753204 653.72827
33.149467 4.7745972 650.91925
33.213028 5.2438965 650.95978
33.276596 5.7131805 651.00031
33.340164 6.1824799 651.04083
33.403725 6.6517715 651.08136
33.467293 7.1210632 651.12189
33.530853 7.5903625 651.16241
33.594421 8.0596542 651.20294
33.65799 8.5289459 651.24347
33.72155 8.9982376 651.284
33.461502 9.0603943 654.17609
33.525345 9.5317688 654.2168
33.589195 10.003143 654.25751
33.653046 10.474518 654.29822
33.716888 10.945892 654.33893
33.780731 11.417252 654.37964
33.844582 11.888626 654.42035
33.908432 12.360001 654.46106
33.972275 12.831375 654.50177
33.712181 12.910858 657.42102
33.449753 12.991058 660.36633
33.514175 13.466637 660.40741
33.57859 13.942223 660.44849
29.970367 -31.779144 633.77496
30.032562 -31.319977 633.81458
30.094757 -30.860794 633.85425
30.156952 -30.401627 633.89392
29.632851 -26.641754 645.41858
29.696136 -26.17453 645.45892
29.419479 -26.2677 648.3125
29.483047 -25.798401 648.35303
29.546616 -25.329102 648.39355
29.610176 -24.859818 648.43408
29.673737 -24.390518 648.47461
29.737305 -23.921219 648.5152
29.800873 -23.451935 648.55573
29.864433 -22.982635 648.59625
29.587303 -23.062088 651.47638
29.651154 -22.590714 651.51709
29.714996 -22.119339 651.5578
29.778839 -21.64798 651.59851
29.84269 -21.176605 651.63922
29.90654 -20.705231 651.67993
29.970383 -20.233856 651.72064
30.034225 -19.762482 651.76135
30.098076 -19.291107 651.80206
30.161926 -18.819748 651.84277
30.225769 -18.348373 651.88348
30.289612 -17.876999 651.92419
30.353462 -17.405624 651.9649
30.417313 -16.93425 652.00562
30.481155 -16.462891 652.04633
30.544998 -15.991516 652.08704
30.608849 -15.520142 652.12775
30.672691 -15.048767 652.16846
30.736542 -14.577393 652.20917
30.800385 -14.106033 652.24988
30.864235 -13.634659 652.29059
31.262863 -12.658188 649.48792
31.326431 -12.188889 649.52844
31.389992 -11.719604 649.56897
31.45356 -11.250305 649.6095
31.51712 -10.781006 649.65002
31.580688 -10.311722 649.69055
31.644257 -9.8424225 649.73108
31.707817 -9.3731384 649.77161
31.771385 -8.9038391 649.81213
32.164291 -7.9524155 647.03265
32.22757 -7.4851761 647.073
32.290863 -7.0179443 647.11334
32.354141 -6.5507126 647.15375
32.417435 -6.0834808 647.19409
32.480713 -5.6162415 647.23444
32.544006 -5.1490097 647.27478
32.607285 -4.681778 647.31512
32.670578 -4.2145462 647.35547
32.733856 -3.7473145 647.39581
32.79715 -3.2800751 647.43622
32.860435 -2.8128433 647.47656
32.923721 -2.3456116 647.51691
32.661293 -2.333725 650.37958
32.724854 -1.8644333 650.4201
32.788422 -1.3951416 650.46063
32.85199 -0.92584229 650.50116
32.915558 -0.45655823 650.54169
32.979118 0.012741089 650.58221
33.042679 0.48203278 650.62274
33.106247 0.95132446 650.66327
33.169815 1.4206238 650.70386
32.907318 1.449234 653.59332
32.971161 1.9206009 653.63403
33.035011 2.3919678 653.67474
33.098862 2.8633423 653.71545
33.162704 3.3347168 653.75616
33.226547 3.8060913 653.79688
33.614769 4.7056732 650.98755
33.678329 5.1749725 651.02808
33.741898 5.6442566 651.0686
33.805466 6.1135559 651.10913
33.869026 6.5828476 651.14966
33.932594 7.0521393 651.19019
33.996155 7.5214386 651.23071
34.059723 7.9907303 651.27124
34.123291 8.460022 651.31177
34.186852 8.9293137 651.35229
33.928864 8.9911728 654.24469
33.992706 9.4625473 654.2854
34.056549 9.9339142 654.32611
34.120399 10.405289 654.36682
34.18425 10.876663 654.40753
34.248093 11.34803 654.44824
34.311935 11.819405 654.48895
34.375786 12.290771 654.52966
34.439636 12.762146 654.57037
34.181618 12.841316 657.48993
34.245743 13.314789 657.53082
34.309875 13.788254 657.57172
30.425629 -31.846588 633.8418
30.487823 -31.387421 633.88141
30.550018 -30.928223 633.92108
30.612213 -30.469055 633.96075
29.543884 -26.902283 651.21936
29.607735 -26.430923 651.26007
29.671585 -25.959549 651.30078
29.735428 -25.488174 651.34149
29.799271 -25.0168 651.3822
29.863121 -24.545425 651.42291
29.926964 -24.074051 651.46362
30.329735 -23.051559 648.66455
30.054657 -23.131317 651.54504
30.1185 -22.659943 651.58575
30.18235 -22.188568 651.62646
30.246201 -21.717209 651.66718
30.310043 -21.245834 651.70789
30.373886 -20.77446 651.7486
30.437737 -20.303085 651.78931
30.501587 -19.831711 651.83002
30.56543 -19.360336 651.87073
30.629272 -18.888977 651.91144
30.693123 -18.417603 651.95215
30.756973 -17.946228 651.99286
30.820816 -17.474854 652.03357
30.884659 -17.003479 652.07428
30.948509 -16.53212 652.11499
31.012352 -16.060745 652.1557
31.076202 -15.589371 652.19641
31.140045 -15.117996 652.23712
31.203896 -14.646622 652.27783
31.267738 -14.175262 652.31848
31.331589 -13.703888 652.35919
31.728165 -12.727112 649.55621
31.791725 -12.257813 649.59674
31.855293 -11.788528 649.63727
31.918854 -11.319229 649.6778
31.982422 -10.84993 649.71832
32.04599 -10.380646 649.75885
32.10955 -9.9113464 649.79938
32.173119 -9.4420624 649.8399
32.236679 -8.9727631 649.88049
32.627548 -8.0210342 647.10065
32.690834 -7.5538025 647.14105
32.75412 -7.0865707 647.1814
32.817406 -6.619339 647.22174
32.880692 -6.1520996 647.26208
32.943977 -5.6848679 647.30243
33.007263 -5.2176361 647.34277
33.070549 -4.7504044 647.38312
33.133835 -4.283165 647.42352
33.197121 -3.8159332 647.46387
33.260406 -3.3486938 647.50421
33.323692 -2.8814621 647.54456
33.386978 -2.4142303 647.5849
33.126587 -2.4026489 650.44788
33.190155 -1.9333572 650.4884
33.253723 -1.4640656 650.52893
33.317284 -0.99476624 650.56946
33.380852 -0.52548218 650.61005
33.444412 -0.056182861 650.65057
33.50798 0.41310883 650.6911
33.571548 0.88240051 650.73163
33.635109 1.3516998 650.77216
33.698677 1.8209839 650.81268
33.762238 2.2902832 650.85321
33.825806 2.7595749 650.89374
33.889374 3.2288666 650.93427
33.952934 3.6981659 650.97479
34.016502 4.16745 651.01532
34.080063 4.6367493 651.05585
34.143631 5.1060486 651.09637
34.207199 5.5753326 651.1369
34.27076 6.044632 651.17743
34.334328 6.5139236 651.21796
34.397888 6.9832153 651.25848
34.461456 7.4525146 651.29901
34.525024 7.9218063 651.3396
34.588585 8.391098 651.38013
34.969131 9.2666168 648.59375
34.715714 9.3296814 651.46118
34.779282 9.7989807 651.50171
34.84285 10.268272 651.54224
34.90641 10.737564 651.58276
34.969971 11.206863 651.62329
35.033539 11.676147 651.66382
35.097107 12.145447 651.70435
35.160667 12.614746 651.74487
35.224236 13.08403 651.7854
34.970833 13.164291 654.67969
34.779312 13.718719 657.64063
37.453568 20.039909 638.323
30.88089 -31.914032 633.90863
30.943085 -31.454865 633.9483
31.00528 -30.995667 633.98792
31.067474 -30.536499 634.02759
31.129669 -30.077332 634.06726
30.864021 -30.185791 636.82214
30.926483 -29.72464 636.86194
30.988945 -29.263458 636.90179
31.051407 -28.802307 636.94159
30.011246 -26.971512 651.28796
30.075096 -26.500153 651.32867
30.138947 -26.028778 651.36938
30.202789 -25.557404 651.4101
30.266632 -25.086029 651.45081
30.330482 -24.614655 651.49152
30.394325 -24.14328 651.53223
30.795029 -23.120483 648.73285
30.522018 -23.200546 651.61365
30.585861 -22.729172 651.65436
30.649712 -22.257797 651.69507
30.713562 -21.786438 651.73578
30.777405 -21.315063 651.77649
30.841248 -20.843689 651.8172
30.905098 -20.372314 651.85791
30.968948 -19.90094 651.89862
31.032791 -19.429565 651.93933
31.096634 -18.958206 651.98004
31.160484 -18.486832 652.02075
31.224335 -18.015457 652.06146
31.288177 -17.544083 652.10217
31.35202 -17.072708 652.14288
31.415871 -16.601349 652.18359
31.479713 -16.129974 652.2243
31.543564 -15.6586 652.26501
31.607407 -15.187225 652.30573
31.671257 -14.715851 652.34644
31.7351 -14.244492 652.38715
31.79895 -13.773117 652.42786
32.193459 -12.796036 649.62451
32.257019 -12.326736 649.66504
32.320587 -11.857452 649.70557
32.384155 -11.388153 649.74609
32.447723 -10.918854 649.78668
32.511284 -10.44957 649.82721
32.574852 -9.9802704 649.86774
32.638412 -9.5109863 649.90826
32.701981 -9.041687 649.94879
33.090805 -8.0896606 647.1687
33.154091 -7.6224213 647.20905
33.217377 -7.1551895 647.24939
33.280663 -6.6879578 647.28973
33.343948 -6.220726 647.33008
33.407234 -5.7534866 647.37042
33.47052 -5.2862549 647.41083
33.533806 -4.8190231 647.45117
33.597092 -4.3517914 647.49152
33.660378 -3.884552 647.53186
33.723663 -3.4173203 647.5722
33.786949 -2.9500885 647.61255
33.850235 -2.4828491 647.65289
33.591888 -2.4715729 650.51624
33.655457 -2.0022812 650.55676
33.719017 -1.5329895 650.59729
33.782585 -1.0636902 650.63782
33.846146 -0.59440613 650.67834
33.909714 -0.12510681 650.71887
33.973282 0.34418488 650.7594
34.036842 0.81347656 650.79993
34.10041 1.2827759 650.84045
34.163971 1.7520599 650.88098
34.227539 2.2213593 650.92151
34.291107 2.6906509 650.96204
34.354668 3.1599426 651.00256
34.418236 3.6292419 651.04309
34.481796 4.098526 651.08362
34.545364 4.5678253 651.12415
34.608932 5.0371246 651.16467
34.672493 5.5064087 651.2052
34.736053 5.975708 651.24579
34.799622 6.4449997 651.28632
35.179245 7.3290558 648.50031
35.242523 7.7962875 648.54071
35.305817 8.2635193 648.58105
35.369102 8.7307587 648.6214
35.432388 9.197998 648.66174
35.495667 9.6652222 648.70209
35.55896 10.132462 648.74243
35.622246 10.599693 648.78278
35.685532 11.066925 648.82318
35.748817 11.534164 648.86353
35.812103 12.001389 648.90387
35.562401 12.076523 651.77264
35.625969 12.545822 651.81317
35.689529 13.015106 651.8537
35.438194 13.095062 654.74829
35.248749 13.649185 657.70953
37.908829 19.972473 638.38983
31.336151 -31.981461 633.97546
31.398346 -31.522293 634.01514
31.460541 -31.06311 634.05475
31.522736 -30.603943 634.09442
31.58493 -30.144775 634.13409
31.647125 -29.685608 634.17377
31.70932 -29.226425 634.21338
31.771515 -28.767242 634.25305
30.478607 -27.040741 651.35657
30.54245 -26.569382 651.39728
30.6063 -26.098007 651.43799
30.670151 -25.626633 651.4787
30.733994 -25.155258 651.51941
30.797836 -24.683884 651.56012
30.861687 -24.212509 651.60083
31.26033 -23.189407 648.80115
31.323898 -22.720123 648.84167
31.387459 -22.250824 648.8822
31.451019 -21.781525 648.92273
31.514587 -21.312241 648.96332
31.578156 -20.842941 649.00385
31.641716 -20.373657 649.04437
31.705284 -19.904358 649.0849
31.768845 -19.435059 649.12543
31.832413 -18.965775 649.16595
31.895981 -18.496475 649.20648
31.959541 -18.027191 649.24701
32.023109 -17.557892 649.28754
31.755539 -17.613312 652.17078
31.819382 -17.141937 652.21149
31.883224 -16.670578 652.2522
31.947075 -16.199203 652.29291
32.010918 -15.727829 652.33362
32.074768 -15.256454 652.37433
32.138611 -14.78508 652.41504
32.202461 -14.313721 652.45575
32.266304 -13.842346 652.49646
32.65876 -12.86496 649.69287
32.722321 -12.39566 649.7334
32.785889 -11.926376 649.77393
32.849457 -11.457077 649.81445
32.913017 -10.987778 649.85498
32.976578 -10.518494 649.89551
33.040146 -10.049194 649.93604
33.103714 -9.5799103 649.97656
33.167274 -9.110611 650.01709
33.554062 -8.1582794 647.23669
33.61734 -7.69104 647.27704
33.680634 -7.2238083 647.31738
33.743912 -6.7565765 647.35779
33.807205 -6.2893448 647.39813
33.870483 -5.8221054 647.43848
33.933777 -5.3548737 647.47882
33.997055 -4.8876419 647.51917
34.060349 -4.4204102 647.55951
34.123627 -3.9531708 647.59985
34.18692 -3.4859467 647.6402
34.250206 -3.0187073 647.6806
34.313492 -2.5514755 647.72095
34.05719 -2.5404968 650.58453
34.12075 -2.0712051 650.62506
34.503349 -1.1497726 647.84198
34.566635 -0.68254089 647.88232
34.629921 -0.21530151 647.92267
34.693207 0.25192261 647.96307
34.756493 0.71916199 648.00342
34.502144 0.74455261 650.86823
34.565704 1.2138519 650.90875
34.629272 1.683136 650.94928
34.692841 2.1524353 650.98981
34.756401 2.621727 651.03033
34.819962 3.0910187 651.07086
34.88353 3.560318 651.11139
34.947098 4.0296021 651.15192
35.010658 4.4989014 651.1925
35.074226 4.9682007 651.23303
35.137787 5.4374847 651.27356
35.201355 5.9067841 651.31409
35.264923 6.3760757 651.35461
35.642494 7.260437 648.56836
35.70578 7.7276611 648.6087
35.769066 8.1949005 648.64905
35.832352 8.6621399 648.68939
35.895638 9.1293716 648.72974
35.958923 9.5966034 648.77008
36.022209 10.063835 648.81049
36.085495 10.531067 648.85083
36.148781 10.998306 648.89117
36.212067 11.465538 648.93152
36.275352 11.93277 648.97186
36.027702 12.007599 651.84094
36.091263 12.476898 651.88153
36.154831 12.946182 651.92206
36.218399 13.415482 651.96259
38.36409 19.905037 638.45667
31.79142 -32.048889 634.0423
31.853615 -31.589722 634.08197
31.91581 -31.130554 634.12158
31.978004 -30.671387 634.16125
32.040199 -30.212219 634.20093
32.102386 -29.753036 634.2406
32.164581 -29.293854 634.28021
32.226776 -28.834686 634.31989
31.28067 -26.543396 648.58575
31.344238 -26.074097 648.62628
31.407806 -25.604797 648.66681
31.471375 -25.135513 648.70734
31.534935 -24.666214 648.74786
31.598495 -24.196915 648.78839
31.662064 -23.727631 648.82892
31.725632 -23.258331 648.86945
31.7892 -22.789047 648.91003
31.85276 -22.319748 648.95056
31.916321 -21.850449 648.99109
31.979889 -21.381165 649.03162
32.043457 -20.911865 649.07214
32.107018 -20.442581 649.11267
32.170586 -19.973282 649.1532
32.234146 -19.503983 649.19373
32.297714 -19.034698 649.23425
32.361282 -18.565399 649.27478
32.424843 -18.096115 649.31531
32.488411 -17.626816 649.35583
32.222893 -17.682541 652.23938
32.61554 -16.688232 649.43689
32.350586 -16.739807 652.3208
32.414429 -16.268433 652.36151
32.478279 -15.797058 652.40222
32.542122 -15.325684 652.44293
32.605972 -14.854309 652.48364
32.669815 -14.38295 652.52435
32.733665 -13.911575 652.56506
33.124062 -12.933884 649.76117
33.187622 -12.464584 649.8017
33.25119 -11.9953 649.84222
33.314758 -11.526001 649.88275
33.378319 -11.056702 649.92328
33.441879 -10.587418 649.96381
33.505447 -10.118118 650.00433
33.569016 -9.6488342 650.04486
33.632576 -9.1795349 650.08539
34.017319 -8.2268982 647.30469
34.080597 -7.7596664 647.34509
34.14389 -7.2924347 647.38544
34.460312 -4.9562683 647.58716
34.523605 -4.4890289 647.62756
34.586884 -4.0217896 647.66791
34.650177 -3.5545654 647.70825
34.713463 -3.087326 647.7486
34.776749 -2.6200943 647.78894
34.522491 -2.6094208 650.65283
34.586052 -2.1401291 650.69336
34.966606 -1.2183914 647.90997
35.029892 -0.75115967 647.95038
35.093178 -0.28392029 647.99072
35.156464 0.18330383 648.03107
35.219749 0.65054321 648.07141
34.967445 0.67562866 650.93652
35.031006 1.144928 650.97705
35.094574 1.614212 651.01758
35.158142 2.0835114 651.05811
35.221703 2.552803 651.09869
35.285263 3.0220947 651.13922
35.348831 3.491394 651.17975
35.412399 3.9606781 651.22028
35.47596 4.4299774 651.2608
35.539528 4.8992767 651.30133
35.603088 5.3685608 651.34186
35.979179 6.2573471 648.55566
35.730225 6.3071518 651.42291
36.105751 7.1918182 648.63635
36.169037 7.6590424 648.6767
36.232323 8.1262817 648.71704
36.295609 8.5935211 648.75739
36.358894 9.0607529 648.79779
36.42218 9.5279846 648.83813
36.485466 9.9952164 648.87848
36.548752 10.462448 648.91882
36.612038 10.929688 648.95917
36.675323 11.396919 648.99951
36.738609 11.864151 649.03986
36.493004 11.938675 651.9093
36.556564 12.407974 651.94983
36.620132 12.877258 651.99036
36.683701 13.346558 652.03088
38.819351 19.837601 638.5235
32.246681 -32.116333 634.10913
32.308876 -31.657166 634.1488
32.371071 -31.197983 634.18848
32.433266 -30.738815 634.22809
32.495461 -30.279648 634.26776
32.557648 -29.820465 634.30743
32.619843 -29.361298 634.34705
32.682037 -28.90213 634.38672
31.745972 -26.61232 648.65405
31.809532 -26.143021 648.69458
31.8731 -25.673721 648.73511
31.936661 -25.204437 648.77563
32.000229 -24.735138 648.81622
32.063797 -24.265839 648.85675
32.127357 -23.796555 648.89728
32.190926 -23.327255 648.93781
32.254486 -22.857971 648.97833
32.318054 -22.388672 649.01886
32.381622 -21.919373 649.05939
32.445183 -21.450089 649.09991
32.508743 -20.980789 649.14044
32.572311 -20.511505 649.18097
32.63588 -20.042206 649.2215
32.699448 -19.572906 649.26202
32.763008 -19.103622 649.30255
32.826569 -18.634323 649.34308
32.890137 -18.165039 649.38361
32.953705 -17.69574 649.42413
33.017273 -17.22644 649.46466
33.080833 -16.757156 649.50519
33.144394 -16.287857 649.54578
33.207962 -15.818558 649.5863
33.27153 -15.349274 649.62683
33.335091 -14.879974 649.66736
33.398659 -14.41069 649.70789
33.462219 -13.941391 649.74841
33.525787 -13.472092 649.78894
33.589355 -13.002808 649.82947
33.652916 -12.533508 649.87
34.037567 -11.566154 647.09027
34.100853 -11.098923 647.13062
34.164139 -10.631683 647.17096
34.227432 -10.164452 647.2113
34.29071 -9.6972198 647.25165
34.354004 -9.2299881 647.29199
34.09787 -9.2484589 650.15369
34.480576 -8.295517 647.37274
34.543854 -7.8282852 647.41309
34.607147 -7.3610535 647.45343
34.986862 -4.5576477 647.69556
35.05014 -4.090416 647.7359
35.113434 -3.6231842 647.77625
35.17672 -3.1559448 647.81659
35.240005 -2.6887207 647.85693
35.303291 -2.2214813 647.89734
35.366577 -1.7542496 647.93768
35.74205 -0.83822632 645.17847
35.805054 -0.37303162 645.21863
35.868065 0.092163086 645.25879
35.931076 0.55735779 645.29895
35.683006 0.58192444 648.1394
35.746292 1.0491486 648.17975
35.4963 1.076004 651.04541
35.559868 1.5452881 651.08594
35.623428 2.0145874 651.12646
35.686996 2.4838791 651.16699
35.750565 2.9531708 651.20752
36.126007 3.8525543 648.42188
36.189293 4.3197937 648.46222
36.252579 4.7870178 648.50262
36.315865 5.2542572 648.54297
36.06839 5.2996368 651.41016
36.442436 6.1887207 648.62366
36.195518 6.2382278 651.49121
36.569008 7.1231918 648.70435
36.632294 7.5904236 648.74469
36.69558 8.057663 648.7851
36.758865 8.5248947 648.82544
36.822151 8.9921265 648.86578
36.885437 9.4593582 648.90613
36.948723 9.92659 648.94647
37.012009 10.393829 648.98682
36.767601 10.461868 651.85602
36.831161 10.931168 651.89655
36.89473 11.400452 651.93707
36.958298 11.869751 651.9776
37.021858 12.33905 652.01813
37.085426 12.808334 652.05865
37.148987 13.277634 652.09918
36.904114 13.358742 654.99487
39.274612 19.770157 638.59033
32.70195 -32.183777 634.17596
32.764145 -31.724609 634.21564
32.82634 -31.265411 634.25531
32.888535 -30.806244 634.29492
32.950722 -30.347076 634.33459
33.012917 -29.887909 634.37427
33.075111 -29.428741 634.41394
33.137306 -28.969559 634.45355
32.274834 -26.211945 648.76294
32.338402 -25.742645 648.80347
32.401962 -25.273361 648.84399
32.46553 -24.804062 648.88452
32.529099 -24.334763 648.92505
32.592659 -23.865479 648.96558
32.656227 -23.396179 649.0061
32.719788 -22.926895 649.04663
32.783356 -22.457596 649.08716
32.846924 -21.988297 649.12769
32.910484 -21.519012 649.16821
32.974045 -21.049713 649.20874
33.037613 -20.580429 649.24927
33.101181 -20.11113 649.28979
33.164749 -19.64183 649.33032
33.22831 -19.172546 649.37085
33.29187 -18.703247 649.41138
33.355438 -18.233963 649.45197
33.419006 -17.764664 649.49249
33.80468 -16.774345 646.71436
33.867966 -16.307121 646.75476
33.931252 -15.83989 646.7951
33.994537 -15.37265 646.83545
34.057823 -14.905418 646.87579
34.121109 -14.438179 646.91614
34.184395 -13.970947 646.95648
34.247681 -13.503716 646.99683
34.310966 -13.036484 647.03723
34.374252 -12.569252 647.07758
34.437546 -12.102013 647.11792
34.500824 -11.634781 647.15826
34.56411 -11.167549 647.19861
34.627396 -10.70031 647.23895
34.690689 -10.233078 647.2793
34.753967 -9.7658463 647.3197
34.817261 -9.2986069 647.36005
34.880539 -8.8313751 647.40039
34.943832 -8.3641434 647.44073
35.699203 -4.6280823 644.92474
35.762222 -4.1628876 644.9649
35.825226 -3.6976929 645.00513
35.888237 -3.2325058 645.04529
35.951248 -2.7673111 645.08545
36.014252 -2.302124 645.12561
36.077263 -1.8369293 645.16583
36.140274 -1.3717346 645.20599
36.203285 -0.90653992 645.24615
36.266296 -0.44135284 645.28632
36.3293 0.023834229 645.32654
36.392311 0.48902893 645.3667
36.146263 0.51329803 648.20746
36.209549 0.98052979 648.2478
36.272835 1.4477692 648.28815
36.336121 1.9150009 648.32849
36.399406 2.3822327 648.36884
36.152298 2.4149551 651.23529
36.215866 2.8842468 651.27582
36.589264 3.7839355 648.48993
36.65255 4.2511673 648.53027
36.715836 4.718399 648.57062
36.779121 5.1856384 648.61096
36.842407 5.6528702 648.65131
36.905693 6.1201019 648.69165
36.968979 6.5873413 648.73199
37.032265 7.0545654 648.7724
37.095551 7.5218048 648.81274
37.158836 7.9890366 648.85309
37.222122 8.4562683 648.89343
37.285408 8.9235077 648.93378
37.348694 9.3907318 648.97412
37.41198 9.8579712 649.01447
37.169342 9.9236526 651.88379
37.232903 10.392944 651.92432
37.296463 10.862244 651.96484
37.360031 11.331528 652.00537
37.423599 11.800827 652.0459
37.48716 12.270126 652.08643
37.550728 12.73941 652.12695
37.614288 13.20871 652.16748
39.729881 19.702728 638.65717
33.157211 -32.251205 634.2428
33.219406 -31.792038 634.28247
33.281601 -31.332855 634.32214
33.343796 -30.873688 634.36176
33.405991 -30.41452 634.40143
33.468185 -29.955353 634.4411
33.53038 -29.49617 634.48077
33.592575 -29.036987 634.52039
32.740135 -26.280869 648.83124
32.803703 -25.811569 648.87177
32.867264 -25.342285 648.91229
32.930832 -24.872986 648.95282
32.9944 -24.403687 648.99335
33.057961 -23.934402 649.03387
33.121529 -23.465103 649.0744
33.185089 -22.995819 649.11493
33.248657 -22.52652 649.15546
33.312225 -22.05722 649.19598
33.375786 -21.587936 649.23651
33.439346 -21.118637 649.27704
33.502914 -20.649353 649.31757
33.566483 -20.180054 649.35815
33.630051 -19.710754 649.39868
33.693611 -19.24147 649.43921
33.757172 -18.772171 649.47974
33.82074 -18.302887 649.52026
34.204651 -17.310204 646.74207
34.267937 -16.842964 646.78241
34.331223 -16.37574 646.82275
34.394508 -15.908508 646.8631
34.457794 -15.441269 646.90344
34.52108 -14.974037 646.94379
34.584366 -14.506798 646.98413
34.647652 -14.039566 647.02454
34.710938 -13.572334 647.06488
34.774223 -13.105103 647.10522
34.837509 -12.637871 647.14557
34.900803 -12.170631 647.18591
34.964081 -11.7034 647.22626
35.027367 -11.236168 647.2666
35.090652 -10.768929 647.30701
35.153946 -10.301697 647.34735
35.217224 -9.834465 647.3877
35.280518 -9.3672333 647.42804
35.343796 -8.9000015 647.46838
35.407089 -8.4327621 647.50873
36.160439 -4.6964035 644.99249
36.22345 -4.2312088 645.03265
36.286453 -3.7660217 645.07281
36.349472 -3.300827 645.11298
36.412476 -2.8356323 645.1532
36.475487 -2.3704453 645.19336
36.538498 -1.9052505 645.23352
36.601501 -1.4400558 645.27368
36.664513 -0.97486877 645.3139
36.727524 -0.50967407 645.35406
36.790535 -0.04447937 645.39423
36.853546 0.42071533 645.43439
36.60952 0.44467926 648.27545
36.672806 0.91191101 648.3158
36.736092 1.3791504 648.35614
36.799377 1.8463821 648.39648
37.168594 2.7466736 645.63531
36.925949 2.7808456 648.47723
36.989235 3.2480774 648.51758
37.052521 3.7153168 648.55792
37.115807 4.1825485 648.59827
37.179092 4.6497803 648.63861
37.242378 5.1170197 648.67896
37.305664 5.5842514 648.71936
37.36895 6.0514832 648.7597
37.432236 6.5187225 648.80005
37.495522 6.9859467 648.84039
37.558807 7.453186 648.88074
37.622093 7.9204178 648.92108
37.685379 8.3876495 648.96143
37.748665 8.8548889 649.00177
37.811951 9.322113 649.04218
37.875237 9.7893524 649.08252
37.634644 9.8547287 651.95209
37.698204 10.32402 651.99261
37.761765 10.79332 652.03314
37.825333 11.262604 652.07367
37.888901 11.731903 652.1142
37.952461 12.201202 652.15472
38.016029 12.670486 652.19525
38.07959 13.139786 652.23578
40.18515 19.635284 638.724
33.612473 -32.318634 634.30963
33.674667 -31.859467 634.3493
33.736862 -31.400299 634.38898
33.799057 -30.941132 634.42859
33.861252 -30.481964 634.46826
33.923447 -30.022781 634.50793
33.985641 -29.563599 634.54761
34.047836 -29.104431 634.58722
33.205429 -26.349792 648.89954
33.268997 -25.880493 648.94006
33.332565 -25.411209 648.98059
33.396126 -24.94191 649.02112
33.459686 -24.47261 649.06165
33.523254 -24.003326 649.10217
33.586823 -23.534027 649.1427
33.650391 -23.064743 649.18323
33.713951 -22.595444 649.22375
34.098328 -21.583923 646.4469
33.84108 -21.65686 649.30487
33.904648 -21.187561 649.3454
34.288193 -20.18222 646.56793
34.351471 -19.714996 646.60828
34.095337 -19.779678 649.46698
34.158905 -19.310394 649.50751
34.222473 -18.841095 649.54803
34.604614 -17.846054 646.76971
34.667908 -17.378822 646.81006
34.731186 -16.911583 646.8504
34.794479 -16.444359 646.89075
34.857758 -15.977127 646.93109
34.921051 -15.509888 646.97144
34.984329 -15.042656 647.01184
35.047623 -14.575417 647.05219
35.110909 -14.108185 647.09253
35.174194 -13.640953 647.13287
35.23748 -13.173721 647.17322
35.300766 -12.70649 647.21356
35.364052 -12.23925 647.25391
35.427338 -11.772018 647.29431
35.490623 -11.304787 647.33466
35.553909 -10.837547 647.375
35.617195 -10.370316 647.41534
35.680481 -9.9030838 647.45569
35.743767 -9.4358521 647.49603
35.807053 -8.9686203 647.53638
35.870338 -8.5013809 647.57678
35.933624 -8.0341492 647.61713
36.621674 -4.7647247 645.06018
36.684685 -4.29953 645.10034
36.747696 -3.8343353 645.1405
36.810699 -3.3691483 645.18073
36.873711 -2.9039536 645.22089
36.936722 -2.4387665 645.26105
36.999733 -1.9735718 645.30121
37.062744 -1.5083771 645.34143
37.125748 -1.0431824 645.38159
37.188759 -0.5779953 645.42175
37.25177 -0.11280823 645.46191
37.314774 0.35238647 645.50214
37.377785 0.81758118 645.5423
37.440796 1.2827759 645.58246
37.503807 1.7479706 645.62262
37.566818 2.2131577 645.66284
37.629822 2.6783447 645.703
37.692833 3.1435394 645.74316
37.755844 3.6087341 645.78333
37.818855 4.0739212 645.82355
37.881866 4.5391159 645.86371
37.94487 5.0043106 645.90387
38.007881 5.4694977 645.94403
38.070892 5.9346924 645.98425
38.133896 6.3998871 646.02441
38.196915 6.8650818 646.06458
38.259918 7.3302689 646.10474
38.322929 7.7954559 646.14496
38.385941 8.2606506 646.18512
38.448944 8.7258453 646.22528
38.511955 9.19104 646.26544
38.574966 9.6562271 646.30566
38.338493 9.7207336 649.15051
38.401779 10.187965 649.19086
38.465065 10.655197 649.2312
38.528351 11.122437 649.27161
38.591637 11.589661 649.31195
38.654922 12.0569 649.35229
38.718208 12.524132 649.39264
38.781494 12.991364 649.43298
40.640411 19.567848 638.79083
34.067734 -32.386078 634.37646
34.129929 -31.92691 634.41614
34.192123 -31.467728 634.45581
34.254318 -31.00856 634.49548
34.316513 -30.549393 634.5351
34.378708 -30.09021 634.57477
34.440903 -29.631042 634.61444
34.503098 -29.171875 634.65405
33.992012 -25.857658 646.15173
34.055298 -25.390427 646.19208
34.118591 -24.923187 646.23242
34.18187 -24.455956 646.27277
34.245163 -23.988716 646.31311
34.308441 -23.521484 646.35345
34.052124 -23.602951 649.21106
34.115692 -23.133667 649.25159
34.179253 -22.664368 649.29211
34.624878 -21.185318 646.55524
34.688156 -20.718086 646.59558
34.75145 -20.250847 646.63593
34.814728 -19.783623 646.67627
34.878021 -19.316383 646.71667
34.941299 -18.849152 646.75702
35.004593 -18.38192 646.79736
35.067871 -17.91468 646.83771
35.131165 -17.447449 646.87805
35.194443 -16.980209 646.9184
35.257736 -16.512985 646.95874
35.321014 -16.045753 646.99915
35.384308 -15.578514 647.03949
35.447586 -15.111282 647.07983
35.51088 -14.644043 647.12018
35.574165 -14.176811 647.16052
35.637451 -13.709579 647.20087
35.700737 -13.242348 647.24121
35.764023 -12.775116 647.28162
35.827309 -12.307877 647.32196
35.890594 -11.840645 647.3623
35.95388 -11.373413 647.40265
36.017166 -10.906174 647.44299
36.080452 -10.438942 647.48334
36.452805 -9.4849701 644.72614
36.515816 -9.0197754 644.7663
36.578827 -8.5545807 644.80646
36.641838 -8.0893936 644.84668
36.704849 -7.6241989 644.88684
37.082901 -4.833046 645.12787
37.145912 -4.3678513 645.16809
37.208923 -3.9026642 645.20825
37.271927 -3.4374695 645.24841
37.334938 -2.9722748 645.28857
37.397949 -2.5070877 645.3288
37.46096 -2.041893 645.36896
37.523972 -1.5766983 645.40912
37.586975 -1.1115112 645.44928
37.649986 -0.64631653 645.4895
37.712997 -0.18112183 645.52966
37.776001 0.28407288 645.56982
37.839012 0.74925232 645.60999
37.902023 1.214447 645.65021
37.965034 1.6796417 645.69037
38.028046 2.1448364 645.73053
38.091049 2.6100311 645.77069
38.15406 3.0752182 645.81091
38.217072 3.5404129 645.85107
38.280083 4.0056 645.89124
38.343094 4.4707947 645.9314
38.406097 4.9359894 645.97162
38.469109 5.4011841 646.01178
38.53212 5.8663712 646.05194
38.595123 6.3315582 646.0921
38.658142 6.7967529 646.13232
38.721146 7.2619476 646.17249
38.784157 7.7271423 646.21265
38.847168 8.192337 646.25281
38.910172 8.6575241 646.29303
38.973183 9.1227112 646.33319
39.036194 9.5879059 646.37335
39.099205 10.053101 646.41351
39.162216 10.518295 646.45374
39.22522 10.983482 646.4939
38.991608 11.053818 649.3396
39.054893 11.521042 649.37994
39.118179 11.988281 649.42029
39.181465 12.455513 649.46063
39.244751 12.922745 649.50098
41.095673 19.500412 638.85767
34.523003 -32.453522 634.4433
34.585197 -31.994354 634.48297
34.647392 -31.535172 634.52264
34.709587 -31.076004 634.56232
34.771782 -30.616837 634.60193
34.833969 -30.157654 634.6416
34.584366 -30.266464 637.39899
34.646835 -29.805298 637.43878
34.583527 -28.52356 640.34033
34.646263 -28.060379 640.38031
34.709 -27.597198 640.42029
34.771736 -27.134048 640.46033
34.834473 -26.670868 640.50031
34.771721 -25.36982 643.42786
34.518555 -25.459045 646.26007
34.581848 -24.991806 646.30042
34.645126 -24.524574 646.34076
34.70842 -24.057335 646.38116
34.771698 -23.590103 646.42151
34.834991 -23.122879 646.46185
34.89827 -22.65564 646.5022
34.961563 -22.188408 646.54254
35.024841 -21.721169 646.58289
35.088135 -21.253937 646.62323
35.151413 -20.786705 646.66364
35.214706 -20.319466 646.70398
35.277985 -19.852242 646.74432
35.341278 -19.385002 646.78467
35.404556 -18.91777 646.82501
35.46785 -18.450539 646.86536
35.531128 -17.983299 646.9057
35.594421 -17.516068 646.94611
35.6577 -17.048828 646.98645
35.720993 -16.581604 647.02679
35.784271 -16.114372 647.06714
35.847565 -15.647133 647.10748
35.910843 -15.179901 647.14783
35.974136 -14.712662 647.18817
36.037422 -14.24543 647.22852
36.100708 -13.778198 647.26892
36.163994 -13.310966 647.30927
36.22728 -12.843735 647.34961
36.290565 -12.376495 647.38995
36.353851 -11.909264 647.4303
36.417137 -11.442032 647.47064
36.480423 -10.974792 647.51099
36.543709 -10.507561 647.55139
36.914047 -9.5532913 644.79382
36.977051 -9.0880966 644.83405
37.040062 -8.6229019 644.87421
37.103073 -8.1577148 644.91437
37.166077 -7.6925201 644.95453
37.229088 -7.2273254 644.99475
37.544136 -4.9013672 645.19562
37.607147 -4.4361725 645.23578
37.670151 -3.9709778 645.27594
37.73317 -3.5057907 645.31616
37.796173 -3.040596 645.35632
37.859184 -2.5754089 645.39648
37.922195 -2.1102142 645.43665
37.985199 -1.6450195 645.47687
38.04821 -1.1798248 645.51703
38.111221 -0.71463776 645.55719
38.174232 -0.24945068 645.59735
38.237244 0.21574402 645.63757
38.300247 0.68093872 645.67773
38.363258 1.1461334 645.7179
38.42627 1.6113281 645.75806
38.489281 2.0765152 645.79828
38.552292 2.5417023 645.83844
38.615295 3.006897 645.8786
38.678307 3.4720917 645.91876
38.741318 3.9372787 645.95898
38.804321 4.4024734 645.99915
38.867332 4.8676682 646.03931
38.930344 5.3328552 646.07947
38.993355 5.7980499 646.11969
39.056366 6.2632446 646.15985
39.11937 6.7284393 646.20001
39.182381 7.1936264 646.24017
39.539612 8.0667343 643.50043
39.602356 8.5299072 643.54047
39.665085 8.9930725 643.58044
39.727821 9.4562378 643.62042
39.790558 9.9194031 643.66046
39.853294 10.382576 643.70044
39.916031 10.845741 643.74048
39.97876 11.308914 643.78046
39.749466 11.380356 646.60181
39.812477 11.845551 646.64197
39.875488 12.310738 646.68213
39.938492 12.775925 646.72229
39.708008 12.854126 649.56903
41.26796 19.077835 641.66058
34.978271 -32.520966 634.51019
35.040466 -32.061798 634.5498
35.102661 -31.6026 634.58948
35.164856 -31.143433 634.62915
35.227043 -30.684265 634.66876
35.289238 -30.225098 634.70844
35.041611 -30.334198 637.46613
35.104073 -29.873032 637.50592
34.917282 -29.517914 640.3277
34.980019 -29.054733 640.36774
35.042755 -28.591583 640.40771
35.105484 -28.128403 640.44775
35.168228 -27.665222 640.48773
35.230957 -27.202072 640.52771
35.293694 -26.738892 640.56775
35.35643 -26.275726 640.60773
35.481903 -25.349396 640.68774
35.232956 -25.438141 643.49554
34.981812 -25.527664 646.32806
35.045105 -25.060425 646.36847
35.108383 -24.593193 646.40881
35.171677 -24.125954 646.44916
35.234955 -23.658722 646.4895
35.298248 -23.191498 646.52985
35.361526 -22.724258 646.57019
35.42482 -22.257027 646.61053
35.488098 -21.789787 646.65094
35.551392 -21.322556 646.69128
35.61467 -20.855324 646.73163
35.677963 -20.388084 646.77197
35.741241 -19.92086 646.81232
35.804535 -19.453621 646.85266
35.867813 -18.986389 646.89301
35.931107 -18.519157 646.93341
35.994385 -18.051918 646.97375
36.057678 -17.584686 647.0141
36.120956 -17.117447 647.05444
36.18425 -16.650223 647.09479
36.247528 -16.182991 647.13513
36.310822 -15.715752 647.17548
36.3741 -15.24852 647.21588
36.437393 -14.781281 647.25623
36.500679 -14.314049 647.29657
36.871201 -13.343147 644.54016
36.627251 -13.379585 647.37726
36.690536 -12.912354 647.4176
36.753822 -12.445114 647.45795
36.817108 -11.977882 647.49829
36.880394 -11.510651 647.5387
36.94368 -11.043411 647.57904
37.006966 -10.57618 647.61938
37.375275 -9.6216125 644.86157
37.438278 -9.1564178 644.90173
37.501297 -8.6912231 644.94189
37.564301 -8.2260361 644.98206
37.627312 -7.7608414 645.02228
37.690323 -7.2956467 645.06244
37.753326 -6.8304596 645.1026
38.005371 -4.9696884 645.26331
38.068375 -4.5044937 645.30347
38.131386 -4.0393066 645.34369
38.493195 -3.1173248 642.60785
38.555931 -2.6541595 642.64783
38.320419 -2.6437302 645.46417
38.383423 -2.1785355 645.50439
38.446434 -1.7133408 645.54456
38.509445 -1.2481537 645.58472
38.572449 -0.78295898 645.62494
38.63546 -0.31776428 645.6651
38.698471 0.14743042 645.70526
38.761482 0.61260986 645.74542
38.824493 1.0778046 645.78564
38.887497 1.5429993 645.82581
38.950508 2.008194 645.86597
39.013519 2.4733887 645.90613
39.07653 2.9385757 645.94635
39.139542 3.4037704 645.98651
39.202545 3.8689575 646.02667
39.265556 4.3341522 646.06683
39.328568 4.7993469 646.10706
39.391571 5.2645416 646.14722
39.45459 5.7297287 646.18738
39.517593 6.1949158 646.22754
39.580605 6.6601105 646.26776
39.643616 7.1253052 646.30792
39.99884 7.9987106 643.56787
40.061577 8.4618835 643.60785
40.124313 8.9250488 643.64789
40.187042 9.3882141 643.68787
40.249786 9.8513794 643.72784
40.312515 10.314552 643.76788
40.375252 10.777718 643.80786
40.437988 11.240891 643.8479
40.210693 11.312035 646.66949
40.273712 11.777222 646.70966
40.336716 12.242416 646.74988
40.399727 12.707611 646.79004
40.171265 12.785507 649.63702
41.725204 19.010101 641.72772
35.433533 -32.588394 634.57703
35.495728 -32.129227 634.61664
35.557922 -31.670044 634.65631
35.620117 -31.210876 634.69598
35.682304 -30.751709 634.73566
35.744499 -30.292542 634.77527
35.49884 -30.401917 637.5332
35.376511 -29.585938 640.39514
35.43924 -29.122757 640.43512
35.501976 -28.659607 640.47516
35.564713 -28.196426 640.51514
35.627449 -27.733246 640.55518
35.690186 -27.270096 640.59515
35.752922 -26.806915 640.63513
35.815659 -26.34375 640.67517
35.941124 -25.417419 640.75519
35.694183 -25.506462 643.56329
35.445068 -25.596291 646.39612
35.508362 -25.129051 646.43646
35.57164 -24.661819 646.47681
35.634933 -24.19458 646.51715
35.698212 -23.727348 646.5575
35.761505 -23.260124 646.59784
35.824783 -22.792885 646.63824
35.888077 -22.325653 646.67859
35.951355 -21.858414 646.71893
36.014648 -21.391182 646.75928
36.077927 -20.92395 646.79962
36.14122 -20.456711 646.83997
36.204498 -19.989487 646.88031
36.267792 -19.522247 646.92072
36.33107 -19.055016 646.96106
36.394363 -18.587784 647.0014
36.457642 -18.120544 647.04175
36.520935 -17.653313 647.08209
36.584213 -17.186073 647.12244
36.647507 -16.718849 647.16278
36.710785 -16.251617 647.20319
36.774078 -15.784378 647.24353
36.837357 -15.317146 647.28387
36.90065 -14.849907 647.32422
36.963936 -14.382675 647.36456
37.332428 -13.411469 644.60785
37.090508 -13.448212 647.44525
37.153793 -12.98098 647.48566
37.521454 -12.015892 644.72839
37.584465 -11.550697 644.76855
37.647476 -11.08551 644.80872
37.710487 -10.620308 644.84894
37.773499 -10.155121 644.8891
37.836502 -9.6899338 644.92926
37.899513 -9.2247391 644.96942
37.962524 -8.7595444 645.00964
38.025536 -8.2943573 645.0498
38.088547 -7.8291626 645.08997
38.15155 -7.3639679 645.13013
38.214561 -6.8987808 645.17035
38.466599 -5.0380096 645.33105
38.52961 -4.5728149 645.37122
38.592621 -4.1076202 645.41138
38.952423 -3.1853485 642.67523
39.015152 -2.7221832 642.71527
38.781647 -2.7120514 645.53192
38.844658 -2.2468567 645.57208
38.907669 -1.781662 645.61224
39.266098 -0.86950684 642.87524
39.328827 -0.40634155 642.91522
39.391563 0.05682373 642.95526
39.4543 0.52000427 642.99524
39.517036 0.98316956 643.03528
39.579773 1.4463348 643.07526
39.642509 1.9095001 643.11523
39.705246 2.3726654 643.15527
39.767975 2.8358383 643.19525
39.830711 3.2990112 643.23529
39.893448 3.7621765 643.27527
39.956184 4.2253418 643.31525
40.018921 4.6885071 643.35529
40.08165 5.1516724 643.39526
40.144394 5.6148529 643.4353
40.207123 6.0780182 643.47528
40.269859 6.5411835 643.51526
40.332596 7.0043488 643.5553
40.395332 7.467514 643.59528
40.458069 7.930687 643.63525
40.520798 8.3938599 643.67529
40.583542 8.8570251 643.71527
40.646271 9.3201904 643.75531
40.709007 9.7833557 643.79529
40.771744 10.246529 643.83527
40.834473 10.709694 643.87531
40.897217 11.172867 643.91528
40.959946 11.636032 643.95532
41.022682 12.099197 643.9953
41.085419 12.562363 644.03528
41.148155 13.025536 644.07532
42.182434 18.942375 641.79486
35.888794 -32.655823 634.64386
35.950989 -32.196655 634.68347
36.013184 -31.737488 634.72314
36.075378 -31.27832 634.76282
36.137573 -30.819153 634.80249
36.199768 -30.35997 634.8421
35.956078 -30.46965 637.60034
35.835732 -29.653961 640.46259
35.898468 -29.190781 640.50256
35.961205 -28.727631 640.54254
36.023941 -28.26445 640.58258
36.08667 -27.80127 640.62256
36.149414 -27.33812 640.6626
36.212143 -26.874939 640.70258
36.274879 -26.411774 640.74255
36.337616 -25.948616 640.78259
36.400352 -25.485443 640.82257
36.155411 -25.574783 643.63098
36.21843 -25.109589 643.67114
36.281433 -24.644394 643.71136
36.344444 -24.179207 643.75153
36.407455 -23.714005 643.79169
36.470459 -23.248817 643.83185
36.53347 -22.78363 643.87207
36.596481 -22.318428 643.91223
36.659492 -21.853241 643.95239
36.722504 -21.388054 643.99255
36.785507 -20.922859 644.03278
36.848518 -20.457664 644.07294
36.91153 -19.992477 644.1131
36.974541 -19.527283 644.15326
37.037552 -19.062088 644.19348
37.100555 -18.596901 644.23364
37.163567 -18.131706 644.2738
37.226578 -17.666519 644.31396
36.984184 -17.721931 647.15009
37.04747 -17.254692 647.19049
37.110756 -16.787468 647.23083
37.174042 -16.320236 647.27118
37.237328 -15.852997 647.31152
37.300613 -15.385765 647.35187
37.667641 -14.410172 644.59521
37.427185 -14.451294 647.43256
37.793655 -13.47979 644.6756
37.553757 -13.51683 647.51331
37.617043 -13.049599 647.55365
37.982689 -12.084213 644.79608
38.0457 -11.619019 644.8363
38.108704 -11.153831 644.87646
38.171722 -10.688629 644.91663
38.234726 -10.223442 644.95679
38.297737 -9.758255 644.99701
38.360748 -9.2930603 645.03717
38.423752 -8.8278656 645.07733
38.486763 -8.3626785 645.11749
38.549774 -7.8974838 645.15771
38.612785 -7.4322891 645.19788
38.675797 -6.9671021 645.23804
38.7388 -6.5019073 645.2782
38.801811 -6.0367203 645.31842
38.864822 -5.5715256 645.35858
38.927826 -5.1063309 645.39874
38.990845 -4.6411362 645.4389
39.348907 -3.7165375 642.70264
39.411644 -3.2533722 642.74268
39.47438 -2.7902069 642.78265
39.537117 -2.327034 642.82269
39.599854 -1.8638687 642.86267
39.662582 -1.4007034 642.90265
39.725319 -0.93753052 642.94269
39.788055 -0.47436523 642.98267
39.850792 -0.011199951 643.02264
39.913528 0.45197296 643.06268
